x,y,z,cluster
-12.8484,3.08444,1.56672,11
-12.9181,3.10784,1.08652,11
-12.9464,3.10793,3.63288,11
-12.8923,3.11018,3.08377,11
-12.9418,3.13144,2.58027,11
-12.9181,3.13596,2.07335,11
-12.8697,3.13136,1.57049,11
-12.9036,3.14628,1.08612,11
-12.9322,3.14649,3.63157,11
-12.9017,3.15434,3.0883,11
-12.9579,3.17744,2.58541,11
-13.343,3.2825,2.14316,11
-13.4019,3.30443,1.63666,11
-13.7696,3.40221,1.15988,11
-13.2784,3.27391,3.73159,11
-13.5726,3.36255,3.25137,11
-13.6979,3.40349,2.73513,11
-13.6013,3.39033,2.18631,11
-13.8608,3.46264,3.89822,11
-13.7229,3.44449,3.28987,11
-13.7986,3.51852,2.75948,11
-13.7861,3.52637,2.21945,11
-13.7856,3.53392,1.68741,11
-13.7628,3.53525,1.162,11
-13.7704,3.56741,2.21868,11
-13.792,3.58069,1.68953,11
-13.7808,3.58498,1.16444,11
-5.04568,0.950619,0.190874,13
-5.04274,0.966094,0.190874,13
-5.05447,0.984426,0.191431,13
-5.06319,1.00226,0.191877,13
-5.08811,1.01134,-0.186596,13
-5.20241,1.0484,0.00361236,13
-5.11045,1.03209,-0.18753,13
-5.13859,1.05419,-0.188681,13
-5.05669,1.04942,0.191989,13
-5.05588,1.05119,0.00351502,13
-5.04532,1.0512,-0.185374,13
-5.10412,1.06624,-0.378248,13
-5.0466,1.06349,0.191729,13
-5.05165,1.06649,0.00351434,13
-5.01861,1.06171,-0.184511,13
-5.11156,1.08417,-0.379044,13
-5.03647,1.07751,0.191469,13
-5.02782,1.07758,0.00350005,13
-4.98113,1.06976,-0.183253,13
-5.09748,1.09754,-0.378248,13
-5.10773,1.11615,-0.379261,13
-5.11207,1.13354,-0.37984,13
-5.07913,0.943579,0.142496,13
-4.60979,1.03245,0.00321552,13
-5.09495,1.14616,-0.378827,13
-5.06737,0.957487,0.142248,13
-4.54322,1.03219,0.00317128,13
-5.08266,1.15979,-0.378176,13
-5.06932,0.973972,0.142385,13
-4.56245,1.05129,0.00318694,13
-5.0645,1.172,-0.37709,13
-4.9428,1.153,0.188682,13
-5.0565,0.987604,0.14211,13
-4.54849,1.06278,0.00317945,13
-5.05214,1.18548,-0.376439,13
-4.82545,1.14125,0.184336,13
-5.04952,1.00233,0.141999,13
-4.48682,1.0629,0.00313861,13
-5.04809,1.00315,-0.0461731,13
-5.13378,1.0226,-0.237063,13
-5.0446,1.20005,-0.37615,13
-4.53526,1.08732,0.173377,13
-5.04642,1.01782,0.141999,13
-4.45728,1.07035,0.00312023,13
-5.08223,1.02615,-0.046514,13
-5.09733,1.03161,-0.235524,13
-5.05059,1.21786,-0.376873,13
-4.16934,1.01174,0.316493,13
-4.47655,1.08778,0.171259,13
-5.04426,1.0335,0.142027,13
-4.44426,1.08166,0.00311342,13
-5.05065,1.03591,-0.0462538,13
-5.05891,1.04,-0.233896,13
-5.0352,1.23051,-0.376005,13
-4.14491,1.01929,0.314875,13
-4.46931,1.10055,0.171111,13
-5.04595,1.04999,0.142165,13
-4.4419,1.09553,0.0031141,13
-5.06116,1.05426,-0.0463794,13
-5.05179,1.0547,-0.233715,13
-5.05754,1.25243,-0.377959,13
-4.13112,1.02935,0.314066,13
-4.45331,1.11111,0.170628,13
-5.0476,1.0665,0.142303,13
-4.44821,1.11157,0.00312091,13
-5.0442,1.06688,-0.0462538,13
-5.04169,1.06874,-0.233398,13
-5.0382,1.26405,-0.376801,13
-4.08346,1.03079,0.310682,13
-4.87931,1.04392,0.320223,13
-4.45279,1.12551,0.170739,13
-4.93972,1.05955,0.139352,13
-4.44478,1.12522,0.00312091,13
-5.0497,1.08424,-0.0463346,13
-5.09133,1.294,-0.38107,13
-4.01748,1.02725,0.3059,13
-4.8049,1.04342,0.315548,13
-4.43866,1.13644,0.170331,13
-4.73133,1.03004,0.133562,13
-4.44325,1.13934,0.00312227,13
-5.06003,1.10271,-0.0464601,13
-5.07961,1.30762,-0.380491,13
-5.10723,1.32394,1.61265,13
-5.09682,1.31944,1.38906,13
-5.07686,1.31266,1.17569,13
-3.99307,1.03407,0.304281,13
-4.62138,1.01843,0.3037,13
-4.47191,1.15958,0.171742,13
-4.70082,1.03851,0.13279,13
-4.43876,1.15272,0.00312159,13
-5.05565,1.11801,-0.0464512,13
-5.11533,1.33071,-0.190119,13
-5.07654,1.32345,-0.380563,13
-5.12257,1.3447,1.61878,13
-5.11239,1.34022,1.39442,13
-3.97251,1.04177,0.302957,13
-4.60557,1.02977,0.302867,13
-4.47027,1.1738,0.171816,13
-4.6108,1.03347,0.130336,13
-4.41296,1.16048,0.00310594,13
-5.05122,1.1333,-0.0464422,13
-5.06774,1.33494,-0.188501,13
-5.07438,1.33953,-0.380708,13
-5.10548,1.35697,1.61469,13
-5.11386,1.35738,1.39595,13
-5.11965,1.35729,1.1875,13
-5.11874,1.35705,0.982814,13
-5.03535,1.33466,0.576209,13
-3.95773,1.05088,0.302074,13
-4.62088,1.04809,0.304084,13
-5.03235,0.95063,0.280052,13
-4.4763,1.19008,0.172188,13
-4.60566,1.04717,0.130281,13
-4.40745,1.1735,0.00310457,13
-5.03114,1.14502,-0.0462897,13
-5.04624,1.34584,-0.187854,13
-5.08374,1.3587,-0.381721,13
-5.11515,1.37635,1.61908,13
-5.10968,1.37307,1.39595,13
-5.10226,1.36945,1.18444,13
-5.106,1.37045,0.981172,13
-5.09261,1.36657,0.778899,13
-5.09075,1.36607,0.583025,13
-3.94871,1.06146,0.301633,13
-4.57972,1.05353,0.301586,13
-4.48614,1.20744,0.172708,13
-4.52547,1.04355,0.128103,13
-4.39031,1.18337,0.00309504,13
-4.65346,1.07409,-0.0428449,13
-5.02182,1.35585,-0.187099,13
-5.09303,1.37794,-0.382734,13
-5.14135,1.40034,1.62872,13
-5.1241,1.39381,1.40105,13
-5.10557,1.38714,1.18619,13
-5.11221,1.38895,0.983179,13
-5.08553,1.38141,0.77846,13
-5.1038,1.38638,0.585004,13
-3.87423,1.05419,0.296188,13
-4.48511,1.04627,0.295566,13
-4.4882,1.22277,0.172931,13
-4.42005,1.03353,0.125208,13
-4.37605,1.19394,0.00308756,13
-4.56641,1.06876,-0.0420734,13
-5.00896,1.36888,-0.186776,13
-5.08974,1.39382,-0.382806,13
-5.14164,1.41737,1.63018,13
-5.12539,1.41106,1.40259,13
-5.10035,1.40254,1.18597,13
-5.0994,1.40228,0.981537,13
-5.08413,1.3978,0.778899,13
-5.06502,1.39254,0.581046,13
-3.80367,1.04754,0.291039,13
-4.41098,1.04326,0.290891,13
-4.47479,1.23388,0.172559,13
-4.36658,1.20577,0.00308347,13
-4.52516,1.07376,-0.0417235,13
-5.20084,1.03646,-0.0968252,13
-5.06349,1.40049,-0.188968,13
-5.18948,1.03665,-0.290959,13
-5.12898,1.43083,1.62755,13
-5.12011,1.42652,1.40233,13
-5.10261,1.42002,1.1875,13
-5.09507,1.41792,0.981537,13
-5.08554,1.41498,0.779775,13
-5.06551,1.40941,0.581596,13
-3.74087,1.0426,0.286477,13
-4.36409,1.04631,0.288009,13
-5.08686,1.02573,0.283765,13
-4.45655,1.24358,0.172002,13
-5.09418,1.02943,0.0938924,13
-4.31471,1.2057,0.00304944,13
-5.04575,1.02166,-0.0939957,13
-4.9408,1.38289,-0.184547,13
-5.05124,1.02516,-0.283383,13
-5.08315,1.43487,1.6144,13
-5.11385,1.4417,1.40182,13
-5.09635,1.43513,1.18706,13
-5.10489,1.43754,0.984274,13
-5.0926,1.43379,0.781529,13
-5.06308,1.42548,0.581816,13
-3.70406,1.0446,0.283902,13
-4.32401,1.05074,0.285575,13
-5.06021,1.03653,0.282454,13
-4.44213,1.25426,0.171594,13
-5.06945,1.04063,0.093495,13
-4.27153,1.20778,0.00302153,13
-5.04161,1.03693,-0.0939774,13
-4.60384,1.30382,-0.17211,13
-5.04709,1.04045,-0.283328,13
-5.01895,1.43338,1.5954,13
-5.08243,1.44969,1.39442,13
-5.06564,1.44328,1.18094,13
-5.06642,1.4435,0.977705,13
-5.072,1.4448,0.779045,13
-5.05199,1.4391,0.581046,13
-3.67303,1.04803,0.281769,13
-4.24906,1.04635,0.280836,13
-4.92895,1.0254,0.275301,13
-4.42193,1.26321,0.170962,13
-4.42159,1.09129,0.125621,13
-5.04666,1.0521,0.0931337,13
-4.21493,1.20575,0.00298409,13
-4.43645,1.09594,-0.0409969,13
-5.04134,1.05301,-0.0940322,13
-4.55083,1.3039,-0.170276,13
-5.04094,1.05531,-0.283163,13
-4.99064,1.44187,1.5878,13
-4.98785,1.43927,1.36968,13
-5.00962,1.44395,1.16891,13
-5.01473,1.44542,0.968581,13
-5.01526,1.44529,0.771007,13
-5.01794,1.44606,0.577638,13
-3.6171,1.04408,0.277723,13
-4.14804,1.03498,0.274367,13
-4.93359,1.04217,0.275738,13
-4.40459,1.27289,0.170442,13
-4.43568,1.10921,0.126118,13
-5.03362,1.06551,0.0929531,13
-4.1699,1.20672,0.00295482,13
-4.43016,1.10882,-0.04097,13
-5.042,1.0693,-0.0941052,13
-4.47482,1.29699,-0.16758,13
-5.03768,1.07077,-0.283163,13
-4.93755,1.44296,1.57231,13
-4.95649,1.44671,1.36228,13
-4.9499,1.44319,1.156,13
-4.97723,1.45116,0.962195,13
-4.96427,1.4471,0.763847,13
-4.97818,1.45116,0.57357,13
-3.53634,1.03253,0.271764,13
-4.12356,1.04232,0.272958,13
-4.93233,1.05772,0.275847,13
-4.35559,1.27322,0.168696,13
-4.42062,1.11987,0.125787,13
-4.11532,1.20462,0.00291875,13
-4.40638,1.11724,-0.0407816,13
-4.48712,1.31549,-0.168192,13
-4.87807,1.44184,1.55477,13
-5.11348,1.30297,1.55067,13
-4.88712,1.44275,1.34442,13
-4.89678,1.44402,1.14462,13
-4.91994,1.45085,0.951976,13
-4.91046,1.44778,0.756248,13
-4.91745,1.44984,0.567083,13
-3.48724,1.02982,0.268232,13
-3.99466,1.02278,0.264632,13
-4.92418,1.07179,0.275574,13
-4.29416,1.26957,0.166467,13
-4.43944,1.13914,0.126421,13
-4.76617,1.03949,0.0881302,13
-4.07421,1.20617,0.0028922,13
-4.42327,1.13598,-0.04097,13
-4.47827,1.32783,-0.168012,13
-4.83606,1.44557,1.54279,13
-4.84375,1.44612,1.33371,13
-5.10182,1.31668,1.33306,13
-4.83061,1.44063,1.13018,13
-5.09395,1.31588,1.12453,13
-4.85046,1.44655,0.939385,13
-4.82257,1.43796,0.743388,13
-4.83011,1.44021,0.557518,13
-3.44106,1.02767,0.264922,13
-3.93451,1.02026,0.260854,13
-4.92282,1.08732,0.275684,13
-5.09178,0.933888,0.233987,13
-4.24046,1.26786,0.164535,13
-4.47462,1.16281,0.127524,13
-4.638,1.02645,0.0858181,13
-4.03504,1.20805,0.00286702,13
-4.41783,1.14904,-0.040952,13
-4.45886,1.33697,-0.167437,13
-5.15829,1.34413,-0.241406,13
-4.78217,1.44545,1.527,13
-5.11189,1.33602,1.55264,13
-4.75414,1.43526,1.31024,13
-5.11839,1.33772,1.33846,13
-4.78693,1.44361,1.12099,13
-4.80458,1.44894,0.931356,13
-4.78783,1.44361,0.738712,13
-4.77048,1.43838,0.551142,13
-3.44267,1.03966,0.26529,13
-3.94198,1.03511,0.261558,13
-4.9292,1.1046,0.27623,13
-5.08202,0.948222,0.233671,13
-4.18011,1.2638,0.162343,13
-4.46427,1.17475,0.127331,13
-4.58703,1.02994,0.0849331,13
-3.99016,1.20796,0.00283775,13
-4.41622,1.1631,-0.04097,13
-4.50542,1.36601,-0.169342,13
-5.15317,1.35969,-0.24136,13
-4.73015,1.44559,1.5118,13
-5.1189,1.35464,1.55602,13
-4.69052,1.43177,1.29391,13
-5.11051,1.35242,1.33748,13
-4.73768,1.44463,1.11049,13
-5.09901,1.35062,1.12746,13
-4.71735,1.43843,0.915299,13
-5.11456,1.3555,0.92859,13
-4.75594,1.44993,0.734474,13
-5.11011,1.35614,0.728836,13
-4.72706,1.44112,0.546634,13
-5.14939,1.36829,0.536228,13
-3.51958,1.07468,0.271469,13
-3.94264,1.04822,0.261814,13
-4.93553,1.12193,0.276776,13
-5.0732,0.962692,0.2334,13
-4.1571,1.27077,0.1616,13
-4.45967,1.18819,0.127303,13
-4.53315,1.03246,0.0839938,13
-3.9348,1.20439,0.00280099,13
-4.37592,1.16685,-0.0406291,13
-4.55759,1.39711,-0.171463,13
-5.14608,1.37472,-0.241225,13
-4.66265,1.44061,1.49163,13
-5.1175,1.37109,1.55687,13
-4.66116,1.43846,1.28702,13
-5.08761,1.36308,1.33257,13
-4.68101,1.44306,1.09824,13
-5.09295,1.36575,1.12704,13
-4.67815,1.44218,0.908547,13
-5.09611,1.36736,0.925997,13
-4.67773,1.44178,0.723075,13
-5.08871,1.36718,0.726378,13
-4.65233,1.43396,0.538498,13
-5.10097,1.37219,0.531622,13
-3.51532,1.08518,0.271396,13
-3.96543,1.06732,0.263544,13
-4.93985,1.13886,0.277213,13
-5.05845,0.975981,0.232858,13
-4.12836,1.27585,0.160634,13
-4.46276,1.20369,0.127496,13
-4.48515,1.03601,0.0831629,13
-3.83938,1.18808,0.00273565,13
-4.36652,1.17871,-0.0405753,13
-4.56187,1.41375,-0.171786,13
-5.13895,1.38972,-0.241089,13
-4.61439,1.44122,1.4776,13
-5.12253,1.38929,1.55969,13
-4.61519,1.43979,1.27554,13
-5.11241,1.38655,1.34017,13
-4.63371,1.44406,1.08818,13
-5.10101,1.3847,1.12976,13
-4.64554,1.44775,0.903073,13
-5.08904,1.38221,0.925479,13
-4.60622,1.43523,0.7127,13
-5.0864,1.38331,0.726651,13
-4.60616,1.43521,0.533661,13
-5.09674,1.38784,0.531622,13
-3.53291,1.1025,0.273014,13
-3.96213,1.07948,0.263544,13
-4.91299,1.14856,0.275902,13
-5.06817,0.993994,0.233445,13
-3.782,1.18153,0.147298,13
-4.43976,1.21211,0.126945,13
-4.42257,1.03586,0.082061,13
-3.77368,1.18045,0.0026914,13
-4.39665,1.20133,-0.0408892,13
-5.17757,1.0193,-0.147214,13
-4.5556,1.42714,-0.171714,13
-5.12599,1.40311,-0.240682,13
-5.20667,1.02682,-0.342534,13
-4.56617,1.44155,1.46357,13
-5.11731,1.40475,1.55941,13
-4.56649,1.43999,1.2633,13
-5.10439,1.4012,1.33919,13
-4.59668,1.44801,1.08052,13
-5.09579,1.40008,1.12955,13
-4.59888,1.4487,0.894861,13
-5.09142,1.39964,0.926689,13
-4.56406,1.43747,0.706854,13
-5.07831,1.39785,0.726105,13
-4.5477,1.43232,0.527394,13
-5.09342,1.40373,0.531722,13
-3.53712,1.11573,0.273603,13
-3.96457,1.09322,0.263928,13
-4.89779,1.16086,0.275247,13
-3.23995,1.02311,0.126308,13
-4.41868,1.22093,0.126448,13
-4.42229,1.05012,0.0821152,13
-3.69567,1.16851,0.00263831,13
-4.35246,1.20361,-0.0405125,13
-5.17442,1.03518,-0.147214,13
-5.12744,1.42043,-0.240953,13
-5.12815,1.02769,-0.337575,13
-4.51982,1.44218,1.45012,13
-5.13332,1.42609,1.56561,13
-4.52059,1.44078,1.25182,13
-5.10474,1.41815,1.34042,13
-4.50575,1.43457,1.06018,13
-5.08865,1.41492,1.12892,13
-4.52509,1.44073,0.881358,13
-5.09374,1.41711,0.927899,13
-4.49835,1.43196,0.697355,13
-5.06255,1.41024,0.724466,13
-4.49119,1.42968,0.521347,13
-5.08525,1.41828,0.531321,13
-3.54224,1.1293,0.274265,13
-3.97081,1.10806,0.264568,13
-4.82721,1.15979,0.271479,13
-5.061,1.02488,0.2334,13
-3.21205,1.02515,0.125342,13
-4.40144,1.23071,0.126062,13
-4.41516,1.06274,0.0820429,13
-5.05509,1.02423,0.0447414,13
-3.64349,1.16432,0.00260359,13
-4.29193,1.20106,-0.0399832,13
-5.04387,1.02516,-0.143589,13
-5.08843,1.42644,-0.239325,13
-5.06631,1.03147,-0.33371,13
-4.48079,1.44489,1.43902,13
-5.0892,1.43067,1.55349,13
-4.48118,1.44338,1.24212,13
-5.0957,1.43249,1.33919,13
-4.47439,1.43972,1.05383,13
-5.08522,1.43079,1.12913,13
-4.45981,1.43503,0.869497,13
-5.10075,1.43593,0.929973,13
-4.42425,1.42334,0.686541,13
-5.06964,1.42899,0.726105,13
-4.45934,1.43463,0.518159,13
-5.07896,1.43334,0.531121,13
-3.53116,1.13772,0.273676,13
-3.96932,1.12078,0.264696,13
-4.6199,1.12498,0.260013,13
-5.06664,1.04221,0.233806,13
-3.18891,1.02855,0.124562,13
-4.3784,1.23877,0.125511,13
-4.41576,1.07723,0.0821152,13
-5.01372,1.03187,0.0444031,13
-3.19454,1.03166,0.00228504,13
-4.27572,1.21068,-0.0398666,13
-4.58724,1.12093,-0.086219,13
-5.03776,1.04003,-0.143505,13
-5.07249,1.43878,-0.238782,13
-5.0426,1.04277,-0.332358,13
-4.44087,1.44708,1.42762,13
-5.01834,1.42737,1.53319,13
-4.43535,1.44365,1.23064,13
-5.0372,1.43274,1.32497,13
-4.42355,1.43836,1.04289,13
-5.04695,1.43675,1.12161,13
-4.4292,1.4402,0.864388,13
-5.07074,1.44429,0.925306,13
-4.41045,1.43384,0.68508,13
-5.04809,1.43964,0.723646,13
-4.419,1.43662,0.513981,13
-5.04297,1.4399,0.527817,13
-3.56464,1.16059,0.276546,13
-3.96874,1.13378,0.264889,13
-4.61061,1.13771,0.259685,13
-5.07124,1.05938,0.234167,13
-3.11258,1.01449,0.121702,13
-4.34383,1.24339,0.124629,13
-4.41535,1.09149,0.0821694,13
-5.02326,1.04991,0.0445159,13
-3.12577,1.02005,0.00223807,13
-4.24026,1.21471,-0.0395705,13
-4.53623,1.12323,-0.0853245,13
-5.04042,1.05671,-0.143673,13
-4.4494,1.45407,-0.168371,13
-5.08234,1.06726,-0.335192,13
-4.37646,1.44095,1.40833,13
-4.98352,1.43401,1.52388,13
-4.39508,1.44547,1.22069,13
-4.97315,1.43103,1.30927,13
-4.38111,1.43943,1.03392,13
-4.9805,1.43436,1.10781,13
-4.39674,1.44457,0.858913,13
-5.01329,1.44457,0.915626,13
-4.3816,1.43934,0.681281,13
-5.00176,1.44304,0.717638,13
-4.34942,1.42877,0.506395,13
-4.99456,1.44266,0.52321,13
-3.53738,1.16373,0.274706,13
-3.96812,1.14678,0.265081,13
-4.5916,1.14798,0.258812,13
-5.05135,1.07141,0.2334,13
-3.10281,1.02184,0.121442,13
-4.30159,1.24559,0.123526,13
-4.42653,1.10868,0.0824403,13
-4.99654,1.06033,0.0443077,13
-3.02765,0.998323,0.00217,13
-4.12895,1.19654,-0.0385658,13
-4.49397,1.12741,-0.0845943,13
-4.9824,1.06051,-0.142111,13
-4.42215,1.46019,-0.167509,13
-4.33391,1.4417,1.39605,13
-4.9358,1.43669,1.51063,13
-4.35484,1.44706,1.21074,13
-4.94919,1.44059,1.30412,13
-4.33685,1.43965,1.02452,13
-4.93664,1.43815,1.09903,13
-4.3363,1.43947,0.847965,13
-4.92751,1.43624,0.90076,13
-4.30956,1.43034,0.670759,13
-4.96593,1.44922,0.713131,13
-4.29407,1.4252,0.500458,13
-4.93663,1.44235,0.517603,13
-3.51108,1.16702,0.272941,13
-3.96554,1.15923,0.265145,13
-4.58031,1.1601,0.258375,13
-3.06268,1.01905,0.119993,13
-4.22963,1.23883,0.121568,13
-4.42601,1.12299,0.0824945,13
-3.09289,1.03036,0.00221901,13
-4.11758,1.20695,-0.038494,13
-4.45754,1.13281,-0.0839736,13
-4.41101,1.47154,-0.167257,13
-4.28867,1.44128,1.38289,13
-4.84669,1.4269,1.48469,13
-5.08276,1.28979,1.48475,13
-4.29355,1.44133,1.19493,13
-4.87686,1.43578,1.28621,13
-4.30188,1.44271,1.0173,13
-4.88155,1.43836,1.08775,13
-5.0866,1.29682,1.06875,13
-4.29924,1.44182,0.841578,13
-4.89663,1.44355,0.89592,13
-4.25169,1.42563,0.662429,13
-4.88735,1.44258,0.702479,13
-4.268,1.4311,0.497929,13
-4.88256,1.44283,0.512396,13
-3.5557,1.19398,0.276693,13
-3.96292,1.17167,0.265209,13
-4.57673,1.17415,0.258375,13
-3.07375,1.03322,0.12055,13
-4.19802,1.24357,0.120768,13
-4.42061,1.13607,0.0824584,13
-4.63435,1.01323,0.0411503,13
-3.0954,1.04176,0.0022231,13
-4.07647,1.20849,-0.0381441,13
-4.43855,1.1425,-0.0836815,13
-4.41784,1.48889,-0.167688,13
-4.58617,1.36186,-0.216659,13
-4.24348,1.44059,1.36974,13
-4.8239,1.43628,1.47906,13
-5.14494,1.32239,1.50409,13
-4.25614,1.44332,1.18574,13
-4.82411,1.43635,1.27346,13
-5.09275,1.31305,1.27654,13
-4.27433,1.44807,1.01183,13
-4.83775,1.4416,1.07897,13
-5.13952,1.32712,1.08072,13
-4.23706,1.43545,0.830265,13
-4.81289,1.43493,0.8814,13
-4.21075,1.42629,0.65673,13
-4.82215,1.43943,0.693739,13
-4.23441,1.4343,0.494521,13
-4.81042,1.43757,0.505286,13
-3.54824,1.2036,0.276398,13
-3.97269,1.18782,0.266105,13
-4.58663,1.1917,0.259139,13
-3.04313,1.03333,0.119473,13
-4.16929,1.24898,0.120052,13
-4.64642,1.20931,0.0867394,13
-4.61365,1.02354,0.0409942,13
-3.04769,1.03612,0.0021911,13
-4.01144,1.20261,-0.03757,13
-4.43406,1.15586,-0.0836633,13
-4.38771,1.49374,-0.166718,13
-4.52073,1.35753,-0.213763,13
-5.15022,1.34504,-0.292661,13
-4.41885,1.50693,-0.338672,13
-4.20557,1.44213,1.35893,13
-4.77721,1.43835,1.46609,13
-5.09989,1.3275,1.49211,13
-4.18949,1.43506,1.1684,13
-4.77048,1.43633,1.26046,13
-5.10656,1.33333,1.28102,13
-4.20063,1.43748,0.995419,13
-4.75747,1.43358,1.06204,13
-5.10414,1.3347,1.07413,13
-4.19356,1.43507,0.822601,13
-4.7698,1.43803,0.874313,13
-5.09362,1.33337,0.872222,13
-4.17734,1.42927,0.6522,13
-4.75607,1.43561,0.684863,13
-4.20272,1.43795,0.491333,13
-4.74885,1.43506,0.499278,13
-3.53604,1.21157,0.275736,13
-3.9633,1.19827,0.265721,13
-4.59068,1.2078,0.259576,13
-5.06122,1.13858,0.234483,13
-3.04467,1.04428,0.119659,13
-4.12621,1.24989,0.118921,13
-4.62336,1.21846,0.0863781,13
-4.58512,1.03198,0.0407686,13
-3.05301,1.04839,0.00219723,13
-3.99051,1.20969,-0.0374085,13
-4.42759,1.16869,-0.0836085,13
-4.34341,1.49355,-0.165208,13
-4.47736,1.3595,-0.211909,13
-5.14221,1.35981,-0.292441,13
-4.40383,1.5169,-0.337877,13
-4.17401,1.44563,1.35016,13
-4.69384,1.42897,1.44184,13
-5.13022,1.35221,1.50219,13
-4.16497,1.44095,1.16278,13
-4.73452,1.44136,1.25212,13
-5.10057,1.34849,1.28055,13
-4.14916,1.43411,0.984262,13
-4.70253,1.43278,1.05075,13
-5.0896,1.34759,1.07194,13
-4.13896,1.43058,0.812747,13
-4.71826,1.43829,0.86567,13
-5.11716,1.35632,0.876962,13
-4.11403,1.42172,0.642993,13
-4.7109,1.43776,0.67899,13
-5.09331,1.35285,0.675278,13
-4.12313,1.42487,0.482538,13
-4.68923,1.43276,0.49347,13
-5.06605,1.3476,0.478371,13
-3.52665,1.22046,0.275295,13
-3.97201,1.21422,0.266554,13
-4.63134,1.2337,0.262088,13
-5.04406,1.15099,0.233851,13
-2.99235,1.03661,0.117727,13
-4.0478,1.23971,0.11677,13
-4.52202,1.20661,0.0845537,13
-4.55659,1.04026,0.0405431,13
-3.05356,1.05907,0.00219995,13
-3.96192,1.21431,-0.0371753,13
-4.42785,1.1833,-0.0836815,13
-4.2057,1.46064,-0.16014,13
-4.46457,1.37059,-0.211501,13
-5.11679,1.3699,-0.291233,13
-4.41423,1.53565,-0.339034,13
-4.12894,1.44422,1.337,13
-4.66468,1.43574,1.43423,13
-5.13906,1.37142,1.506,13
-4.11945,1.43937,1.1513,13
-4.66615,1.4362,1.2352,13
-5.10204,1.36564,1.28196,13
-4.0996,1.43107,0.973542,13
-4.67381,1.43972,1.04532,13
-5.0845,1.36295,1.07174,13
-4.10485,1.4329,0.806908,13
-4.63853,1.42956,0.851842,13
-5.08248,1.36383,0.871732,13
-4.06855,1.42,0.636563,13
-4.62128,1.42592,0.6667,13
-5.08434,1.36719,0.674643,13
-4.0859,1.42605,0.47869,13
-4.64584,1.43509,0.489364,13
-5.05227,1.36055,0.477462,13
-3.46452,1.21087,0.270734,13
-3.96922,1.2267,0.266618,13
-4.62753,1.2479,0.262088,13
-5.01618,1.16083,0.232722,13
-2.96746,1.03819,0.116872,13
-3.9886,1.23497,0.115171,13
-4.48355,1.21109,0.0839034,13
-4.492,1.04002,0.0399966,13
-2.99933,1.05058,0.0021632,13
-3.91615,1.21344,-0.0367806,13
-4.42999,1.19845,-0.083791,13
-4.20403,1.47453,-0.160247,13
-4.47179,1.38783,-0.212044,13
-5.08751,1.3788,-0.289806,13
-4.41891,1.55249,-0.339758,13
-4.07399,1.43905,1.32063,13
-4.62177,1.43808,1.42239,13
-5.13854,1.38818,1.50709,13
-4.08401,1.44107,1.14263,13
-4.59044,1.42833,1.21631,13
-5.11283,1.38536,1.28574,13
-4.07035,1.43489,0.967635,13
-4.62082,1.43893,1.03445,13
-5.08975,1.38111,1.07373,13
-4.05592,1.4298,0.798149,13
-4.61531,1.43792,0.848384,13
-5.09636,1.38433,0.874837,13
-4.04365,1.42524,0.633348,13
-4.57338,1.42652,0.660418,13
-5.07342,1.38095,0.673753,13
-3.91277,1.37911,0.4589,13
-4.59107,1.43362,0.484057,13
-5.06153,1.37971,0.478734,13
-3.11377,1.09902,0.243587,13
-3.96734,1.23946,0.266746,13
-4.54566,1.24079,0.257665,13
-4.94646,1.1607,0.229652,13
-2.96426,1.04729,0.116872,13
-3.37806,1.0573,0.097635,13
-4.43352,1.21218,0.0830364,13
-4.41578,1.03666,0.0393461,13
-3.03851,1.07478,0.00219383,13
-3.89428,1.21977,-0.0366101,13
-4.46969,1.22391,-0.0846125,13
-4.25412,1.50677,-0.162332,13
-4.47514,1.40394,-0.212406,13
-5.05822,1.38754,-0.288379,13
-4.41788,1.56738,-0.340047,13
-4.03263,1.43837,1.30865,13
-4.567,1.43642,1.40688,13
-5.13333,1.40369,1.50682,13
-4.03039,1.43606,1.12885,13
-4.55459,1.43251,1.20797,13
-5.11981,1.40412,1.28857,13
-4.0025,1.42479,0.952539,13
-4.55016,1.43225,1.01961,13
-5.08643,1.39697,1.07393,13
-4.0015,1.42443,0.788295,13
-4.53948,1.42959,0.835247,13
-5.08448,1.39787,0.873529,13
-4.01596,1.42934,0.629695,13
-4.53969,1.43131,0.656184,13
-5.07012,1.39678,0.67388,13
-2.91219,1.03649,0.341921,13
-4.5506,1.43632,0.480252,13
-5.07647,1.40053,0.480552,13
-2.58149,0.920064,0.202167,13
-3.95115,1.24772,0.265913,13
-4.53413,1.25261,0.257228,13
-4.9108,1.16824,0.228162,13
-2.94974,1.05235,0.116427,13
-3.21659,1.01761,0.0930579,13
-4.39509,1.21618,0.0823861,13
-4.40966,1.04951,0.03932,13
-3.05404,1.09082,0.00220744,13
-3.87812,1.22779,-0.0364935,13
-4.47747,1.24082,-0.0848316,13
-4.19114,1.49895,-0.160104,13
-4.55175,1.44333,-0.216252,13
-4.42338,1.58462,-0.340843,13
-3.9859,1.4355,1.29491,13
-4.52508,1.4385,1.39532,13
-5.12622,1.41866,1.506,13
-3.98411,1.43336,1.11712,13
-4.53355,1.44119,1.20356,13
-5.10798,1.41774,1.28668,13
-3.96964,1.42683,0.945757,13
-4.49728,1.43079,1.00874,13
-5.09062,1.41493,1.07573,13
-3.98045,1.43072,0.785011,13
-4.46374,1.4208,0.82211,13
-5.07732,1.41267,0.873039,13
-3.97153,1.42727,0.623411,13
-4.50413,1.43531,0.651678,13
-5.05434,1.40913,0.672355,13
-2.80424,1.00778,0.329608,13
-4.48171,1.42971,0.473443,13
-5.0616,1.41315,0.479552,13
-2.58617,0.930681,0.202756,13
-3.93685,1.2565,0.265209,13
-4.52738,1.2657,0.257065,13
-4.9004,1.18166,0.227846,13
-2.96718,1.06885,0.117244,13
-3.18584,1.01864,0.0922583,13
-4.37016,1.22372,0.0819888,13
-4.41711,1.06561,0.0394155,13
-3.07796,1.11003,0.00222718,13
-3.82672,1.22444,-0.036045,13
-4.48423,1.25752,-0.0850324,13
-4.18182,1.5101,-0.159924,13
-4.56918,1.4643,-0.217292,13
-4.42131,1.5992,-0.34106,13
-3.93115,1.42942,1.27854,13
-4.4695,1.43595,1.37953,13
-5.11073,1.43127,1.50273,13
-3.94516,1.43304,1.10742,13
-4.47373,1.4373,1.18884,13
-5.07367,1.425,1.27913,13
-3.93956,1.42968,0.939632,13
-4.43422,1.42572,0.995568,13
-5.0872,1.43081,1.07593,13
-3.95386,1.43487,0.780631,13
-4.43873,1.42786,0.818307,13
-5.07106,1.4277,0.872712,13
-3.92435,1.42393,0.616689,13
-4.47708,1.44183,0.6484,13
-5.06814,1.42974,0.67477,13
-2.8058,1.01807,0.330157,13
-4.3239,1.394,0.457221,13
-5.0697,1.43219,0.480734,13
-2.58049,0.937589,0.202535,13
-3.94247,1.27164,0.265849,13
-4.52732,1.28068,0.257283,13
-4.89772,1.19692,0.227891,13
-2.96576,1.07863,0.117318,13
-3.14846,1.01735,0.0912657,13
-4.35869,1.23495,0.0818442,13
-4.4245,1.08177,0.0395109,13
-3.05105,1.11091,0.00221016,13
-3.69069,1.19341,-0.034798,13
-4.48901,1.27373,-0.0851967,13
-4.17717,1.52292,-0.159924,13
-4.56657,1.47892,-0.217383,13
-4.96744,1.41192,-0.283932,13
-4.42388,1.6155,-0.341639,13
-3.91238,1.4362,1.27386,13
-4.42583,1.43691,1.36741,13
-5.07113,1.43697,1.49238,13
-3.90534,1.43215,1.09748,13
-4.41397,1.43306,1.17412,13
-5.05525,1.43657,1.27559,13
-3.89851,1.42833,0.930881,13
-4.39914,1.42935,0.98867,13
-5.02058,1.42871,1.06276,13
-3.91621,1.43482,0.774062,13
-4.40717,1.43264,0.813294,13
-5.02396,1.43109,0.865358,13
-3.8921,1.42575,0.612305,13
-4.40387,1.43318,0.638431,13
-5.02748,1.43494,0.66994,13
-2.80267,1.02667,0.330157,13
-3.05002,0.993647,0.322838,13
-5.0107,1.43214,0.475554,13
-2.54108,0.932107,0.199666,13
-3.99358,1.30166,0.269564,13
-4.54161,1.29978,0.25832,13
-4.63512,1.14783,0.215835,13
-3.05625,1.12217,0.121033,13
-3.13202,1.02266,0.0908796,13
-4.31355,1.23647,0.0810675,13
-4.4134,1.09341,0.0394415,13
-2.9716,1.09232,0.00215503,13
-3.58151,1.17026,-0.0338022,13
-4.48316,1.28695,-0.0851602,13
-4.18748,1.54126,-0.160499,13
-4.56106,1.49262,-0.217337,13
-4.45259,1.64148,-0.344243,13
-3.87209,1.43491,1.26217,13
-4.36762,1.43284,1.35077,13
-5.00288,1.43423,1.47358,13
-3.88279,1.43741,1.09237,13
-4.37087,1.4339,1.16382,13
-4.98264,1.43247,1.25837,13
-3.86299,1.42878,0.923443,13
-4.35292,1.42911,0.979264,13
-4.98134,1.43407,1.05538,13
-3.85923,1.42738,0.763661,13
-4.34099,1.42587,0.801886,13
-4.9712,1.43257,0.857023,13
-3.84317,1.42122,0.60529,13
-4.31005,1.41728,0.625458,13
-4.96492,1.43357,0.662187,13
-2.76967,1.02423,0.326639,13
-3.03089,0.997711,0.321136,13
-4.96228,1.43478,0.471373,13
-3.98388,1.31203,0.26918,13
-4.67571,1.35369,0.266183,13
-4.61316,1.15743,0.214977,13
-3.06216,1.13501,0.121405,13
-3.06621,1.01159,0.0890598,13
-4.2646,1.23661,0.0802186,13
-4.42069,1.10963,0.0395369,13
-3.02542,1.12265,0.00219655,13
-3.19713,1.05553,-0.0302049,13
-4.43598,1.28815,-0.0843387,13
-3.35181,1.24536,-0.128615,13
-4.45502,1.65792,-0.344822,13
-3.84796,1.43941,1.25574,13
-4.33952,1.43838,1.34344,13
-4.94394,1.43376,1.45751,13
-3.84214,1.43578,1.08217,13
-4.3416,1.43907,1.1572,13
-4.94463,1.43798,1.24988,13
-3.79551,1.41707,0.908347,13
-4.33088,1.43661,0.975293,13
-4.91764,1.43209,1.04281,13
-3.81338,1.42374,0.75545,13
-4.30855,1.42987,0.7967,13
-4.91185,1.4318,0.847544,13
-3.80635,1.42089,0.600176,13
-4.28782,1.42457,0.622863,13
-4.91861,1.43656,0.656595,13
-2.61101,0.974677,0.308279,13
-2.99477,0.996015,0.317631,13
-4.86418,1.4226,0.462468,13
-2.56054,0.957109,0.201652,13
-3.98647,1.32646,0.269628,13
-4.66387,1.36579,0.265746,13
-4.46436,1.13466,0.208204,13
-3.07832,1.15175,0.122185,13
-3.06594,1.02194,0.0891426,13
-4.24832,1.24603,0.0799837,13
-4.39982,1.11875,0.0393808,13
-2.82905,1.05967,0.00205633,13
-3.16257,1.05489,-0.0299089,13
-4.40227,1.29302,-0.0837728,13
-3.08129,1.15563,-0.11837,13
-4.45738,1.67438,-0.345401,13
-3.82027,1.44243,1.24814,13
-4.2987,1.4395,1.33216,13
-4.90258,1.43809,1.44661,13
-5.08961,1.28807,1.43252,13
-3.79791,1.43254,1.07094,13
-4.27649,1.43207,1.14101,13
-4.83205,1.42134,1.22252,13
-5.06728,1.28844,1.21575,13
-3.76467,1.41873,0.902003,13
-4.29956,1.44088,0.969231,13
-4.87657,1.43637,1.03503,13
-3.78139,1.42503,0.749975,13
-4.25652,1.42711,0.787884,13
-4.84971,1.42984,0.837575,13
-3.74736,1.41198,0.591554,13
-4.25619,1.42857,0.618903,13
-4.85045,1.43282,0.648079,13
-3.41494,1.01013,0.324972,13
-3.96535,1.33296,0.268475,13
-4.62232,1.36903,0.263617,13
-4.47247,1.15134,0.208746,13
-4.23489,1.25621,0.0798031,13
-4.42348,1.13923,0.0396236,13
-2.82953,1.06976,0.00205905,13
-3.14321,1.05916,-0.0297564,13
-4.40212,1.30766,-0.0838458,13
-4.60223,1.18826,-0.132601,13
-2.83286,1.07238,-0.108952,13
-5.10709,1.32042,-0.340473,13
-4.50351,1.7075,-0.34938,13
-3.80063,1.44835,1.24317,13
-4.26518,1.44285,1.32314,13
-4.85572,1.44053,1.43408,13
-5.07816,1.30176,1.43041,13
-3.76548,1.43352,1.06304,13
-4.24545,1.43617,1.1339,13
-4.8109,1.43117,1.21828,13
-5.13876,1.32342,1.23387,13
-3.74114,1.42299,0.897409,13
-4.26733,1.44465,0.962961,13
-4.82518,1.43734,1.02506,13
-5.06927,1.3092,1.01457,13
-3.76046,1.43034,0.746691,13
-4.2176,1.42847,0.781489,13
-4.78101,1.42554,0.826462,13
-3.73653,1.42101,0.590531,13
-4.1758,1.41586,0.607841,13
-4.79376,1.43208,0.641089,13
-3.3126,0.990923,0.315521,13
-2.55182,0.971738,0.201432,13
-3.92722,1.33356,0.266169,13
-4.58271,1.3726,0.261596,13
-4.47471,1.16657,0.209017,13
-4.21569,1.2646,0.0795141,13
-4.42771,1.15481,0.039693,13
-2.81876,1.07559,0.00205361,13
-4.37032,1.31281,-0.0833164,13
-4.58018,1.19757,-0.132072,13
-2.82302,1.07857,-0.108701,13
-5.08467,1.33127,-0.33925,13
-4.4051,1.68566,-0.342145,13
-3.75154,1.44284,1.22856,13
-4.2108,1.43886,1.30764,13
-4.74068,1.42224,1.40139,13
-5.1227,1.32994,1.4441,13
-3.72135,1.42981,1.05181,13
-4.19607,1.43383,1.12188,13
-4.78136,1.43836,1.21191,13
-5.13467,1.33918,1.23387,13
-3.70852,1.42362,0.890627,13
-4.17035,1.4261,0.942059,13
-4.74193,1.4284,1.0083,13
-5.09563,1.3327,1.02066,13
-3.71842,1.42742,0.739209,13
-4.18338,1.43121,0.775957,13
-4.74261,1.42995,0.820578,13
-5.13983,1.34838,0.828787,13
-3.67582,1.41084,0.581617,13
-4.15738,1.42385,0.605793,13
-4.71718,1.42498,0.631429,13
-5.13146,1.34906,0.629114,13
-3.32956,1.00714,0.31743,13
-3.85609,1.32262,0.261622,13
-4.55745,1.38029,0.260395,13
-4.47594,1.18157,0.209243,13
-4.20605,1.27579,0.0794057,13
-4.41351,1.16558,0.0395976,13
-2.80238,1.0792,0.00204408,13
-4.26103,1.29425,-0.0813083,13
-4.4644,1.18194,-0.128837,13
-2.80758,1.08255,-0.108234,13
-4.46584,1.53769,-0.213899,13
-5.07864,1.34636,-0.339121,13
-3.69093,1.43254,1.21014,13
-4.15739,1.43487,1.29241,13
-4.68566,1.42142,1.3864,13
-5.10366,1.34173,1.43989,13
-3.67728,1.42584,1.04059,13
-4.16416,1.43721,1.11452,13
-4.70999,1.43266,1.19492,13
-5.09852,1.34647,1.22617,13
-3.67593,1.42406,0.883845,13
-4.12806,1.4258,0.933489,13
-4.68597,1.42723,0.997324,13
-5.10005,1.35058,1.02237,13
-3.65993,1.41786,0.728443,13
-4.11473,1.42184,0.76403,13
-4.68158,1.42723,0.810773,13
-5.13758,1.36465,0.829095,13
-3.6521,1.41461,0.578548,13
-4.12303,1.42623,0.601423,13
-4.67863,1.42901,0.626853,13
-5.1225,1.36352,0.628525,13
-2.52656,0.978643,0.299703,13
-3.25789,0.996376,0.310887,13
-3.69604,0.985752,0.312811,13
-3.224,1.11688,0.218969,13
-4.42908,1.35626,0.253297,13
-4.47326,1.19555,0.209288,13
-4.19256,1.28575,0.0792251,13
-4.40895,1.17886,0.0395889,13
-2.7888,1.0838,0.00203659,13
-4.19205,1.28736,-0.080067,13
-4.45399,1.19382,-0.128642,13
-2.78841,1.085,-0.107622,13
-4.45922,1.55072,-0.213809,13
-5.07737,1.36271,-0.339314,13
-2.73959,1.06765,-0.213289,13
-2.73809,1.06921,-0.321714,13
-3.63131,1.42224,1.19202,13
-4.12398,1.43751,1.28339,13
-4.65184,1.42676,1.37769,13
-5.10698,1.35936,1.44199,13
-3.65758,1.43113,1.03625,13
-4.12677,1.43849,1.10569,13
-4.63591,1.42568,1.17723,13
-5.11036,1.36638,1.23002,13
-3.65428,1.42858,0.879688,13
-4.08581,1.42525,0.924919,13
-4.6516,1.43238,0.99094,13
-5.06649,1.35834,1.01647,13
-3.63267,1.42014,0.723881,13
-4.08245,1.42472,0.758844,13
-4.64512,1.43171,0.805216,13
-5.10284,1.37219,0.824163,13
-3.63024,1.41897,0.575771,13
-4.07842,1.42483,0.59555,13
-4.64579,1.43458,0.62304,13
-5.10295,1.37509,0.626641,13
-3.26718,1.01019,0.312068,13
-3.67568,0.99241,0.311344,13
-4.33237,1.3412,0.248001,13
-4.47536,1.21083,0.209559,13
-4.1695,1.29269,0.0788638,13
-4.44392,1.20283,0.0399359,13
-2.74357,1.07593,0.00200596,13
-4.19381,1.30199,-0.0801765,13
-4.46767,1.21219,-0.129144,13
-2.7646,1.08551,-0.106832,13
-4.43559,1.55778,-0.212904,13
-4.57565,1.42281,-0.263455,13
-5.07991,1.38011,-0.339765,13
-2.73259,1.07459,-0.213,13
-4.41792,1.55391,-0.38462,13
-2.7237,1.07324,-0.320409,13
-3.60292,1.42388,1.18413,13
-4.07701,1.43518,1.27014,13
-4.6309,1.4359,1.37278,13
-5.13353,1.38331,1.45068,13
-3.619,1.42885,1.02656,13
-4.0693,1.43247,1.09147,13
-4.58975,1.42692,1.16662,13
-5.10991,1.38307,1.23093,13
-3.6172,1.4269,0.871812,13
-4.0519,1.42738,0.91823,13
-4.57234,1.42334,0.97498,13
-5.11062,1.387,1.02617,13
-3.60177,1.42081,0.71859,13
-4.02326,1.41792,0.748646,13
-4.57854,1.42659,0.79443,13
-5.07,1.38006,0.81954,13
-3.56789,1.40723,0.566565,13
-4.0404,1.42547,0.590634,13
-4.60444,1.4373,0.618084,13
-5.07093,1.38316,0.623226,13
-2.59725,1.0244,0.308828,13
-2.60816,0.92109,0.278378,13
-3.30209,1.03209,0.315703,13
-3.68992,1.00841,0.312811,13
-2.56846,1.01434,0.203712,13
-2.60453,0.920218,0.177276,13
-4.23104,1.32406,0.242431,13
-4.47644,1.22588,0.209784,13
-2.54732,1.00691,0.101827,13
-3.31518,1.17325,0.0970008,13
-3.21429,1.00736,0.0608548,13
-4.44021,1.21646,0.0399359,13
-2.56173,1.01369,0.00187527,13
-3.05496,1.08188,-0.0290746,13
-4.19552,1.31665,-0.0802861,13
-4.46682,1.22668,-0.129227,13
-2.59588,1.02847,-0.100433,13
-4.36771,1.54901,-0.209873,13
-4.57698,1.43864,-0.263784,13
-5.05256,1.38934,-0.338219,13
-2.59392,1.02926,-0.202437,13
-4.42346,1.57113,-0.385521,13
-2.63171,1.04633,-0.309964,13
-3.58965,1.43138,1.1812,13
-4.02648,1.4313,1.25576,13
-4.57964,1.43542,1.35889,13
-5.13577,1.40083,1.45252,13
-3.59304,1.43136,1.02043,13
-3.99729,1.42092,1.07332,13
-4.55754,1.43225,1.15954,13
-5.10376,1.39822,1.23047,13
-3.5983,1.43221,0.868312,13
-4.0042,1.4244,0.908406,13
-4.54739,1.43089,0.970591,13
-5.11202,1.40423,1.02732,13
-3.57273,1.42204,0.713663,13
-4.00404,1.42497,0.74588,13
-4.5158,1.42225,0.784297,13
-5.06193,1.39456,0.818924,13
-3.52955,1.40464,0.561158,13
-4.00241,1.42589,0.585718,13
-4.49029,1.4168,0.60334,13
-5.06762,1.39898,0.623344,13
-2.59964,1.03456,0.309488,13
-2.59876,0.926748,0.277677,13
-3.32645,1.05092,0.318338,13
-3.66952,1.01494,0.311344,13
-2.57089,1.02443,0.204154,13
-2.61298,0.932229,0.178044,13
-4.05369,1.28223,0.232494,13
-4.47458,1.24014,0.209875,13
-2.56371,1.0225,0.102607,13
-3.35957,1.20057,0.098407,13
-3.19022,1.01058,0.0604574,13
-4.41044,1.22286,0.0397017,13
-2.57718,1.02896,0.00188888,13
-3.01773,1.07913,-0.0287516,13
-4.19241,1.32982,-0.0803043,13
-4.46593,1.24118,-0.129311,13
-2.56952,1.02715,-0.0995346,13
-4.3714,1.56543,-0.21028,13
-4.45359,1.41489,-0.256922,13
-4.93771,1.37407,-0.330812,13
-2.57964,1.03277,-0.201568,13
-4.40643,1.58032,-0.384457,13
-2.56022,1.02701,-0.301913,13
-3.55596,1.43061,1.17156,13
-3.9995,1.43554,1.24871,13
-4.51835,1.43145,1.342,13
-5.13145,1.41658,1.45252,13
-3.55813,1.43011,1.01176,13
-3.96828,1.42433,1.06669,13
-4.51978,1.43563,1.15105,13
-5.10226,1.41466,1.23115,13
-3.55224,1.42652,0.858248,13
-3.95471,1.42048,0.898164,13
-4.49535,1.42969,0.960416,13
-5.10485,1.41912,1.02674,13
-3.55467,1.4275,0.710926,13
-3.9635,1.42426,0.739139,13
-4.46159,1.42024,0.775635,13
-5.07952,1.41618,0.822468,13
-3.50319,1.40661,0.55765,13
-3.96073,1.42475,0.580255,13
-4.46796,1.42484,0.600925,13
-5.06808,1.41585,0.623933,13
-2.57339,1.03328,0.30674,13
-2.58935,0.932357,0.276976,13
-3.30708,1.05597,0.316793,13
-3.65199,1.02217,0.310121,13
-2.58069,1.03752,0.205184,13
-2.59414,0.934491,0.176955,13
-3.98411,1.27368,0.228726,13
-4.47557,1.25521,0.2101,13
-2.53831,1.0214,0.101715,13
-3.29945,1.19052,0.0967526,13
-3.15663,1.0106,0.0598794,13
-4.26321,1.19613,0.0384093,13
-2.55453,1.02902,0.00187459,13
-3.05861,1.10434,-0.0291733,13
-4.19784,1.34572,-0.0804869,13
-4.45825,1.2538,-0.129199,13
-2.57747,1.03952,-0.0999659,13
-4.29612,1.55336,-0.206887,13
-4.44923,1.42854,-0.256922,13
-4.95076,1.39408,-0.331971,13
-2.60883,1.05375,-0.204101,13
-4.43623,1.60638,-0.387485,13
-2.53494,1.02591,-0.299302,13
-3.51168,1.42533,1.1584,13
-3.9626,1.43604,1.23856,13
-4.45437,1.42623,1.32429,13
-5.10014,1.42479,1.44489,13
-3.51878,1.42685,1.00181,13
-3.92834,1.42362,1.05713,13
-4.45151,1.429,1.13478,13
-5.08383,1.42636,1.22776,13
-3.51257,1.42312,0.849716,13
-3.92919,1.42494,0.893357,13
-4.44617,1.42908,0.95084,13
-5.08535,1.43052,1.0237,13
-3.51473,1.424,0.703809,13
-3.93967,1.42936,0.735508,13
-4.44595,1.43029,0.773674,13
-5.05043,1.42478,0.818461,13
-3.4851,1.41178,0.555458,13
-3.9042,1.41796,0.572608,13
-4.42486,1.42607,0.595714,13
-5.06658,1.43221,0.624286,13
-2.61996,1.06132,0.312676,13
-2.64539,0.961713,0.283285,13
-3.30193,1.0655,0.316612,13
-3.62486,1.02658,0.308084,13
-2.45551,0.995949,0.195473,13
-2.58939,0.941763,0.176827,13
-3.93363,1.27086,0.226051,13
-4.44863,1.26239,0.209017,13
-2.58332,1.04873,0.103647,13
-3.26291,1.18866,0.0957876,13
-3.1069,1.0052,0.0589943,13
-4.22008,1.19801,0.0380536,13
-3.0336,1.10584,-0.0289669,13
-4.2032,1.36168,-0.0806694,13
-4.49092,1.27786,-0.130259,13
-2.57983,1.04968,-0.100182,13
-4.22752,1.54324,-0.20381,13
-4.47522,1.45205,-0.258679,13
-4.93495,1.40598,-0.331198,13
-2.54647,1.03766,-0.19947,13
-4.44158,1.62375,-0.388386,13
-2.57228,1.05022,-0.304089,13
-3.46924,1.42051,1.14584,13
-3.91853,1.43368,1.22616,13
-4.41794,1.42952,1.31475,13
-5.0976,1.44095,1.44541,13
-3.49559,1.42995,0.996453,13
-3.89118,1.42367,1.0483,13
-4.38887,1.42376,1.11992,13
-5.03071,1.42812,1.21598,13
-3.49103,1.42688,0.845559,13
-3.90001,1.42791,0.887713,13
-4.40635,1.43121,0.943259,13
-5.04223,1.43509,1.0159,13
-3.46029,1.41431,0.693773,13
-3.85943,1.41366,0.721334,13
-4.39275,1.42807,0.765176,13
-5.01563,1.43159,0.81353,13
-3.45695,1.41274,0.551659,13
-3.88216,1.42345,0.570013,13
-4.40255,1.4338,0.593299,13
-5.00679,1.43191,0.617457,13
-2.62221,1.07161,0.313336,13
-2.57611,0.945485,0.276175,13
-3.30148,1.07655,0.316884,13
-3.60157,1.03193,0.306372,13
-2.79765,1.14473,0.222987,13
-2.54246,0.933536,0.173817,13
-3.59274,1.17291,0.206667,13
-4.42841,1.27135,0.208249,13
-2.75302,1.12748,0.110594,13
-3.26019,1.19901,0.0958152,13
-3.0924,1.011,0.0587776,13
-4.16833,1.19715,0.0376199,13
-2.51394,1.03064,0.0018494,13
-3.0133,1.10893,-0.0288055,13
-4.19045,1.37177,-0.0805051,13
-4.55134,1.31016,-0.132127,13
-2.58122,1.05948,-0.100361,13
-4.25182,1.56691,-0.205213,13
-4.46315,1.46328,-0.25824,13
-4.93253,1.42166,-0.331327,13
-2.55711,1.05116,-0.200555,13
-4.45995,1.646,-0.390432,13
-2.5865,1.0653,-0.306156,13
-3.44188,1.42166,1.13824,13
-3.87992,1.43306,1.21544,13
-4.38975,1.4353,1.30767,13
-5.01431,1.43404,1.42304,13
-3.4456,1.42186,0.983442,13
-3.85497,1.42385,1.03971,13
-4.36232,1.42995,1.11426,13
-4.99354,1.43413,1.20805,13
-3.44604,1.42084,0.835714,13
-3.84883,1.42257,0.877053,13
-4.35911,1.43067,0.934081,13
-4.97554,1.43263,1.00334,13
-3.43866,1.4178,0.690306,13
-3.83382,1.41764,0.717358,13
-4.34805,1.4283,0.758148,13
-4.96755,1.43437,0.806441,13
-3.39315,1.39883,0.54216,13
-3.84804,1.42435,0.565643,13
-4.32558,1.42343,0.583513,13
-4.95372,1.43318,0.611452,13
-2.63729,1.08722,0.315535,13
-2.60865,0.96652,0.27998,13
-3.5668,1.03382,0.303683,13
-2.82178,1.16472,0.225194,13
-2.5976,0.962836,0.177788,13
-3.16526,1.04411,0.18226,13
-4.4101,1.28075,0.207572,13
-2.88439,1.19162,0.116018,13
-3.22182,1.19613,0.094795,13
-3.07694,1.01641,0.0585428,13
-4.13391,1.20101,0.0373423,13
-3.93941,1.62917,0.00290173,13
-2.89459,1.07533,-0.0277021,13
-4.19002,1.38587,-0.0805781,13
-4.60488,1.34089,-0.133801,13
-3.03501,1.25664,-0.118155,13
-4.37152,1.62627,-0.21123,13
-4.4975,1.48984,-0.260491,13
-4.92527,1.43595,-0.331134,13
-2.57967,1.06969,-0.202581,13
-4.43807,1.65341,-0.388959,13
-2.5869,1.07475,-0.306591,13
-3.41985,1.42486,1.13239,13
-3.83774,1.43088,1.2036,13
-4.34239,1.43457,1.29487,13
-4.93297,1.42716,1.40119,13
-3.41534,1.42165,0.976044,13
-3.82242,1.42517,1.03211,13
-4.33301,1.43508,1.10789,13
-4.91429,1.42771,1.18993,13
-3.41283,1.41942,0.828714,13
-3.80138,1.41831,0.867229,13
-4.30819,1.42861,0.924106,13
-4.93153,1.43636,0.995354,13
-3.40071,1.41437,0.683554,13
-3.7907,1.41493,0.710099,13
-4.27529,1.41895,0.746218,13
-4.91096,1.43436,0.797965,13
-3.33038,1.38492,0.532808,13
-3.81025,1.42366,0.560727,13
-4.23648,1.40853,0.572074,13
-4.89116,1.43136,0.604269,13
-2.72388,1.13271,0.326309,13
-2.57119,0.961622,0.276275,13
-3.51866,1.03158,0.299852,13
-2.81635,1.17261,0.225047,13
-2.53668,0.949119,0.173817,13
-3.11183,1.03708,0.179366,13
-4.37548,1.28526,0.206127,13
-2.87242,1.19701,0.115684,13
-3.18818,1.19479,0.0939126,13
-3.01785,1.00717,0.057477,13
-4.07648,1.1979,0.0368566,13
-3.96485,1.65396,0.00292419,13
-2.8351,1.06314,-0.0271638,13
-4.1023,1.37084,-0.0789717,13
-5.07348,1.49424,-0.147549,13
-3.07356,1.28366,-0.119808,13
-2.80938,1.05495,-0.135904,13
-4.50049,1.50617,-0.26093,13
-4.42585,1.85117,-0.348006,13
-4.40312,1.65579,-0.386339,13
-4.37138,1.83188,-0.518746,13
-3.40312,1.43015,1.1283,13
-3.81897,1.43724,1.19909,13
-4.30694,1.43753,1.2856,13
-4.87764,1.42739,1.38671,13
-3.40204,1.42838,0.973493,13
-3.78174,1.42323,1.0223,13
-4.27605,1.43079,1.09444,13
-4.85381,1.4263,1.17634,13
-3.36707,1.41252,0.81865,13
-3.77322,1.421,0.861795,13
-4.28056,1.43404,0.919118,13
-4.86495,1.43317,0.982798,13
-3.37369,1.41529,0.678992,13
-3.76699,1.41926,0.706468,13
-4.23911,1.42139,0.740661,13
-4.86579,1.43739,0.791339,13
-3.30878,1.38786,0.530031,13
-3.76601,1.42031,0.554855,13
-4.20487,1.41236,0.568388,13
-4.80581,1.42241,0.594261,13
-2.69656,1.13107,0.323451,13
-3.30654,1.11197,0.318338,13
-3.43712,1.01913,0.293169,13
-2.55897,0.966416,0.175546,13
-4.30065,1.27763,0.202786,13
-4.02869,1.19729,0.0364576,13
-3.96068,1.6665,0.00292487,13
-2.81779,1.06653,-0.0270292,13
-3.15739,1.06586,-0.0608443,13
-5.06025,1.50723,-0.147298,13
-2.81267,1.06605,-0.13622,13
-4.47409,1.51261,-0.259667,13
-4.41096,1.86086,-0.347282,13
-4.39243,1.66717,-0.385848,13
-4.39321,1.85689,-0.52201,13
-3.38022,1.43275,1.12216,13
-3.80109,1.44384,1.19486,13
-4.24689,1.43198,1.26899,13
-4.84087,1.43276,1.3775,13
-3.33799,1.41354,0.956401,13
-3.74926,1.42416,1.0147,13
-4.2118,1.42367,1.07911,13
-4.81207,1.43009,1.16728,13
-3.35194,1.41828,0.816025,13
-3.72314,1.4152,0.851343,13
-4.23344,1.43272,0.909941,13
-4.79937,1.42987,0.970433,13
-3.32858,1.4084,0.670781,13
-3.75341,1.42731,0.70474,13
-4.18521,1.41762,0.732,13
-4.74207,1.41667,0.771921,13
-3.30724,1.39916,0.530469,13
-3.7283,1.41917,0.549938,13
-4.1761,1.41697,0.565083,13
-4.75671,1.42376,0.588727,13
-2.68758,1.13701,0.322791,13
-2.54665,0.970296,0.274272,13
-3.25879,1.10705,0.314067,13
-3.34233,1.00219,0.285344,13
-4.26323,1.28076,0.201205,13
-3.99723,1.2013,0.036206,13
-3.94726,1.67513,0.00291875,13
-2.80143,1.07017,-0.0269036,13
-4.52822,1.3639,-0.131932,13
-3.07482,1.3064,-0.120168,13
-2.80379,1.07253,-0.135949,13
-4.49116,1.53375,-0.26093,13
-4.40615,1.87477,-0.347354,13
-4.41309,1.88128,-0.525057,13
-3.34767,1.43109,1.1128,13
-3.72139,1.42665,1.17118,13
-4.20604,1.4326,1.25809,13
-4.76898,1.42741,1.35828,13
-3.32386,1.4196,0.953595,13
-3.70595,1.42073,1.00415,13
-4.17891,1.42685,1.0718,13
-4.74609,1.42634,1.15234,13
-3.3359,1.42358,0.813181,13
-3.6996,1.41926,0.846954,13
-4.16783,1.42478,0.896774,13
-4.71694,1.42108,0.954642,13
-3.29983,1.40818,0.665854,13
-3.6874,1.41517,0.693158,13
-4.16497,1.42502,0.729221,13
-4.71217,1.4235,0.76776,13
-3.26381,1.39261,0.524186,13
-3.69711,1.4203,0.545978,13
-4.14077,1.41916,0.560889,13
-4.7162,1.42742,0.584253,13
-2.6978,1.1511,0.32444,13
-3.25256,1.11608,0.313795,13
-3.30586,1.00232,0.282492,13
-4.19524,1.27438,0.19818,13
-3.96482,1.20484,0.0359458,13
-3.91544,1.67582,0.00289901,13
-2.77201,1.06869,-0.0266525,13
-4.52305,1.37749,-0.131904,13
-2.79396,1.07861,-0.135632,13
-4.49304,1.5498,-0.261314,13
-4.38663,1.88238,-0.346269,13
-2.74975,1.06303,-0.242117,13
-4.4968,1.93328,-0.535719,13
-3.31429,1.42886,1.10316,13
-3.68478,1.4256,1.16103,13
-4.17251,1.43548,1.24937,13
-4.7378,1.43393,1.35065,13
-3.2813,1.41334,0.942625,13
-3.6645,1.41775,0.994094,13
-4.14144,1.42826,1.06331,13
-4.72679,1.43636,1.14871,13
-3.30015,1.4203,0.805524,13
-3.65875,1.41648,0.838593,13
-4.13102,1.42637,0.889791,13
-4.69847,1.43125,0.951789,13
-3.27382,1.40897,0.661475,13
-3.65181,1.41438,0.687281,13
-4.10557,1.41878,0.719579,13
-4.68699,1.4316,0.76437,13
-3.30041,1.42021,0.530762,13
-3.66503,1.4209,0.541881,13
-4.08859,1.41531,0.554407,13
-4.69946,1.4381,0.582722,13
-2.68786,1.15662,0.323671,13
-3.26751,1.00165,0.279476,13
-4.16743,1.27991,0.197051,13
-3.93339,1.20848,0.0356942,13
-3.85887,1.66563,0.00286089,13
-2.74635,1.06849,-0.0264372,13
-4.46626,1.37518,-0.130371,13
-3.08234,1.33199,-0.120779,13
-2.78226,1.08391,-0.135225,13
-4.3726,1.89227,-0.345618,13
-2.73719,1.06784,-0.241298,13
-4.38231,1.90002,-0.522772,13
-2.69512,1.05321,-0.344171,13
-3.28796,1.42948,1.09585,13
-3.64643,1.42364,1.15031,13
-4.1281,1.43438,1.23738,13
-4.67618,1.43096,1.33433,13
-3.24768,1.41069,0.934206,13
-3.64117,1.42158,0.988943,13
-4.09574,1.42658,1.05269,13
-4.64694,1.42769,1.13037,13
-3.2555,1.41294,0.795679,13
-3.61614,1.41275,0.829814,13
-4.10812,1.43258,0.885801,13
-4.64152,1.42948,0.941135,13
-3.24964,1.4104,0.65746,13
-3.6126,1.41195,0.680713,13
-4.0509,1.41381,0.710754,13
-4.62404,1.4279,0.754815,13
-3.2307,1.40197,0.52024,13
-3.6136,1.41373,0.534917,13
-4.05895,1.41901,0.550975,13
-4.58118,1.41729,0.568592,13
-2.68795,1.16645,0.32411,13
-2.55058,0.998773,0.275674,13
-2.6281,0.919864,0.254089,13
-3.26252,1.01108,0.279313,13
-2.80535,1.21885,0.225636,13
-2.55899,1.00248,0.176379,13
-2.6668,0.934455,0.154523,13
-3.71413,1.15317,0.175784,13
-2.76941,1.20427,0.112266,13
-3.06432,1.07519,0.0586692,13
-3.73676,1.16063,0.0339421,13
-3.85649,1.67866,0.00286293,13
-2.63788,1.03561,-0.0254235,13
-4.45439,1.3865,-0.130147,13
-3.07824,1.34144,-0.120779,13
-2.71105,1.06576,-0.131923,13
-4.36494,1.90488,-0.345473,13
-2.67177,1.05177,-0.235814,13
-4.28538,1.87363,-0.511892,13
-2.63368,1.03853,-0.33673,13
-3.23539,1.41845,1.07977,13
-3.62508,1.42813,1.14496,13
-4.08192,1.43238,1.22485,13
-4.5962,1.42192,1.31274,13
-3.22031,1.41056,0.927574,13
-3.61875,1.42564,0.984037,13
-4.05009,1.42463,1.04208,13
-4.59789,1.42807,1.1195,13
-3.21182,1.40571,0.786053,13
-3.58267,1.41236,0.823126,13
-4.03162,1.41979,0.87024,13
-4.59118,1.42941,0.931813,13
-3.21647,1.40774,0.651621,13
-3.59909,1.41942,0.678984,13
-4.02514,1.41869,0.706995,13
-4.57248,1.42736,0.74711,13
-3.19648,1.39879,0.515418,13
-3.57608,1.41171,0.53,13
-3.99752,1.41131,0.543222,13
-4.55596,1.42482,0.566002,13
-2.67798,1.1719,0.323341,13
-2.55768,1.01061,0.276776,13
-2.58677,0.914316,0.250363,13
-3.28223,1.02824,0.281269,13
-2.79155,1.22305,0.224827,13
-2.54106,1.00445,0.175354,13
-2.65921,0.940967,0.15425,13
-3.17205,0.995544,0.150272,13
-2.75289,1.20714,0.111746,13
-2.59033,1.0255,0.0768451,13
-3.14205,1.1133,0.0602226,13
-3.38686,1.06335,0.0307933,13
-3.84491,1.68767,0.00285817,13
-2.5817,1.02271,-0.0249121,13
-3.07942,1.09244,-0.0596578,13
-4.4339,1.39506,-0.129673,13
-3.09973,1.36213,-0.121785,13
-2.56477,1.01735,-0.124955,13
-4.32439,1.90299,-0.342724,13
-2.54904,1.0125,-0.225255,13
-4.24778,1.87273,-0.508084,13
-2.5659,1.02091,-0.328462,13
-3.21178,1.41986,1.07334,13
-3.58324,1.42436,1.13312,13
-4.04123,1.43204,1.21395,13
-4.53565,1.41845,1.29669,13
-3.19474,1.41106,0.921451,13
-3.57833,1.42241,0.974227,13
-4.01548,1.42631,1.0343,13
-4.55724,1.43079,1.11066,13
-3.17981,1.40334,0.779271,13
-3.55651,1.41467,0.818109,13
-3.99031,1.41902,0.86226,13
-4.53058,1.42581,0.920398,13
-3.19505,1.41006,0.648154,13
-3.56726,1.41953,0.673798,13
-3.9901,1.42012,0.701602,13
-4.53039,1.42949,0.740946,13
-3.16683,1.39741,0.511326,13
-3.54412,1.41168,0.525903,13
-3.95487,1.40991,0.538011,13
-4.50423,1.42382,0.560115,13
-2.66892,1.1777,0.322681,13
-2.54071,1.01293,0.275274,13
-2.59614,0.9266,0.251545,13
-3.30186,1.04552,0.283225,13
-2.73487,1.20823,0.22056,13
-2.58153,1.02962,0.178364,13
-2.58015,0.921907,0.149827,13
-3.15279,1.00014,0.149504,13
-2.74095,1.21194,0.111411,13
-2.56953,1.0264,0.0763213,13
-3.21017,1.14853,0.0615954,13
-3.18915,1.01204,0.0290238,13
-3.84063,1.69986,0.00285885,13
-2.4987,0.998708,-0.0241406,13
-3.07982,1.10323,-0.0597308,13
-4.41722,1.40472,-0.129311,13
-3.16223,1.40119,-0.124409,13
-2.56163,1.02521,-0.124955,13
-3.22454,1.43082,-0.255904,13
-2.61808,1.04924,-0.23164,13
-4.23929,1.88454,-0.507758,13
-2.56275,1.02877,-0.328462,13
-3.17334,1.41452,1.06194,13
-3.55748,1.42678,1.12635,13
-3.97883,1.42369,1.19652,13
-4.51288,1.42654,1.29142,13
-3.17185,1.41259,0.916094,13
-3.53885,1.41931,0.964661,13
-3.96901,1.42353,1.02345,13
-4.50084,1.42827,1.09798,13
-3.15677,1.40476,0.774677,13
-3.50859,1.4081,0.808076,13
-3.95274,1.41933,0.855077,13
-4.46725,1.42095,0.908413,13
-3.17813,1.41426,0.645599,13
-3.50987,1.40918,0.663773,13
-3.93651,1.41467,0.69294,13
-4.48362,1.42987,0.734011,13
-3.14806,1.40068,0.508988,13
-3.47451,1.39632,0.516207,13
-3.91133,1.40793,0.532673,13
-4.462,1.42555,0.555405,13
-2.66802,1.18709,0.323011,13
-2.52374,1.01515,0.273772,13
-2.54832,0.918354,0.247183,13
-3.31478,1.06081,0.284611,13
-2.71202,1.20809,0.219015,13
-2.59224,1.04313,0.179325,13
-2.63085,0.949133,0.152939,13
-3.13068,1.0037,0.148601,13
-2.73539,1.21953,0.111337,13
-3.27057,1.18148,0.0628237,13
