x,y,z,cluster
3.27903,-0.312336,-0.118478,37
3.37574,-0.197904,-0.153141,37
3.2962,-0.0734864,-0.181273,37
3.31079,0.0460479,-0.213714,37
3.28629,-0.314764,-0.23948,37
3.43542,-0.203028,-0.282633,37
3.40088,-0.07778,-0.311441,37
4.20405,0.057004,-0.426403,37
4.30123,-0.414931,-0.472943,37
4.19987,-0.250633,-0.500429,37
4.11202,-0.0952647,-0.529019,37
4.17775,0.0553348,-0.578647,37
3.01956,-0.0671492,0.733089,37
3.02885,0.0449934,0.704357,37
4.18795,-0.40561,0.943351,37
3.02518,-0.180255,0.647757,37
3.02907,-0.0684714,0.616869,37
3.05977,0.0433695,0.592989,37
2.98678,-0.289275,0.556916,37
3.01546,-0.180099,0.530154,37
3.09796,-0.0708401,0.513331,37
3.48752,0.0468146,0.543997,37
3.00913,-0.29128,0.446588,37
3.09905,-0.186123,0.427988,37
3.1712,-0.0741761,0.406463,37
3.16357,0.0408094,0.375137,37
3.01543,-0.29189,0.335105,37
3.08676,-0.186358,0.311223,37
3.11318,-0.0739608,0.284169,37
3.14924,0.0390853,0.257551,37
3.01058,-0.292747,0.223135,37
3.05013,-0.184574,0.196105,37
3.07451,-0.074116,0.168173,37
3.05866,0.0363593,0.138261,37
3.01261,-0.293899,0.112526,37
2.9893,-0.182463,0.0826078,37
3.03059,-0.0743274,0.0547675,37
3.02468,0.0356386,0.0262394,37
3.36192,-0.329221,0.00229933,37
3.03918,-0.186147,-0.0273163,37
3.06154,-0.0762627,-0.0559155,37
3.42046,0.0382122,-0.0954284,37
3.28104,-0.322688,-0.118586,37
3.3123,-0.204384,-0.15029,37
3.31393,-0.0840544,-0.182261,37
3.3199,0.0359877,-0.214293,37
3.27935,-0.324256,-0.239046,37
3.43975,-0.213876,-0.283043,37
3.41457,-0.0885749,-0.312718,37
4.2052,0.0441163,-0.426504,37
4.25443,-0.423594,-0.467938,37
4.20107,-0.263642,-0.500665,37
4.11567,-0.107984,-0.529529,37
4.15017,0.0422351,-0.574806,37
3.03002,-0.0766832,0.735683,37
3.02995,0.0357123,0.704583,37
4.19542,-0.41933,0.94532,37
3.00997,-0.188618,0.644621,37
3.02786,-0.077739,0.616669,37
3.06185,0.0340038,0.59337,37
3.01425,-0.301273,0.562208,37
3.01096,-0.189102,0.529462,37
3.32555,-0.086253,0.551083,37
3.49456,0.0361865,0.545076,37
2.98755,-0.298445,0.443519,37
3.09649,-0.195505,0.427715,37
3.18583,-0.0842984,0.40837,37
3.15773,0.031045,0.37443,37
3.02144,-0.301831,0.335874,37
3.07028,-0.194819,0.30962,37
3.25032,-0.0871971,0.29671,37
3.14636,0.0293955,0.257307,37
3.02058,-0.303077,0.223944,37
3.02266,-0.192221,0.194375,37
3.07028,-0.0834396,0.167955,37
3.03578,0.0267727,0.137222,37
3.01666,-0.303641,0.112712,37
3.03561,-0.19464,0.0839037,37
3.03435,-0.0837351,0.0548398,37
3.01677,0.0262891,0.02617,37
3.36089,-0.339533,0.00229933,37
3.11543,-0.200413,-0.0280071,37
3.05829,-0.0855711,-0.0558607,37
3.41056,0.0276372,-0.0951496,37
3.25816,-0.330533,-0.117795,37
3.28474,-0.212801,-0.149069,37
3.28671,-0.0934547,-0.180779,37
3.32598,0.0258488,-0.21468,37
3.3339,-0.339981,-0.243097,37
3.44107,-0.224558,-0.283206,37
3.42523,-0.0993679,-0.313721,37
4.20432,0.0312074,-0.426403,37
4.22839,-0.434107,-0.465218,37
4.20123,-0.276594,-0.500784,37
4.11631,-0.120639,-0.529657,37
4.13344,0.0293826,-0.572474,37
3.02686,-0.0858961,0.734976,37
3.01739,0.026306,0.701639,37
4.19412,-0.432199,0.94532,37
3.00645,-0.197659,0.643994,37
3.01782,-0.0867464,0.614674,37
3.0423,0.0244523,0.589565,37
3.0006,-0.309208,0.559836,37
3.01135,-0.198404,0.529635,37
3.32428,-0.0964266,0.55092,37
3.50552,0.0255443,0.546771,37
2.98662,-0.30761,0.443519,37
3.07907,-0.203891,0.425393,37
3.10822,-0.0917883,0.398456,37
3.1439,0.021263,0.372782,37
3.0205,-0.3111,0.335874,37
3.05875,-0.203511,0.308519,37
3.26596,-0.0976447,0.298164,37
3.19328,0.0200364,0.261138,37
2.99286,-0.309572,0.221957,37
3.04197,-0.202821,0.195656,37
3.07101,-0.0928888,0.168009,37
3.04784,0.0175279,0.137764,37
3.01572,-0.312894,0.112712,37
3.02203,-0.203081,0.0835453,37
3.02708,-0.0928295,0.0547134,37
3.02184,0.0170619,0.0262134,37
3.3658,-0.350464,0.00230342,37
3.2485,-0.218983,-0.0292092,37
3.06701,-0.0952327,-0.056025,37
3.39664,0.0171031,-0.0947592,37
3.25514,-0.34032,-0.117723,37
3.23324,-0.219428,-0.146762,37
3.30337,-0.104072,-0.181712,37
3.33502,0.0156869,-0.21526,37
3.33086,-0.349999,-0.242953,37
3.45727,-0.236269,-0.284598,37
3.42093,-0.109748,-0.313356,37
4.20141,0.0182956,-0.426101,37
4.21221,-0.445509,-0.463586,37
4.19838,-0.289346,-0.500547,37
4.11394,-0.133203,-0.529402,37
4.12559,0.0166693,-0.571376,37
3.03533,-0.0954569,0.737098,37
3.0194,0.0170597,0.702092,37
4.2015,-0.445991,0.947289,37
3.00681,-0.206949,0.644203,37
3.02243,-0.0961603,0.615672,37
3.03942,0.0151039,0.588994,37
3.01528,-0.320073,0.562755,37
3.02841,-0.208861,0.532747,37
3.27762,-0.105138,0.543239,37
3.49867,0.0147602,0.545692,37
2.98566,-0.316771,0.443519,37
3.06657,-0.212515,0.423754,37
3.13271,-0.102132,0.401634,37
3.16282,0.0116873,0.375019,37
3.01163,-0.319526,0.334995,37
3.04819,-0.212203,0.307518,37
3.30447,-0.108944,0.301708,37
3.32987,0.0106772,0.272304,37
2.99189,-0.318752,0.221957,37
3.02939,-0.211319,0.194888,37
3.09066,-0.102975,0.169101,37
3.06086,0.00821201,0.138351,37
3.01375,-0.322039,0.112674,37
3.01342,-0.211791,0.0833247,37
3.01279,-0.101644,0.0544605,37
3.01988,0.0077858,0.026196,37
3.38559,-0.363028,0.00231771,37
3.43633,-0.242237,-0.0309047,37
3.06271,-0.104505,-0.055952,37
3.38568,0.00666069,-0.0944524,37
3.25706,-0.350626,-0.117831,37
3.30828,-0.23472,-0.1502,37
3.318,-0.114724,-0.182536,37
3.32308,0.00543557,-0.214487,37
3.32977,-0.360217,-0.242953,37
3.42173,-0.244389,-0.281733,37
3.44247,-0.121013,-0.315362,37
4.12683,0.00530972,-0.418533,37
4.196,-0.456816,-0.461954,37
4.20341,-0.302652,-0.501256,37
4.14027,-0.146772,-0.532846,37
4.1276,0.00401399,-0.571651,37
3.03113,-0.104635,0.736155,37
3.01165,0.00777608,0.70028,37
4.19721,-0.458561,0.946633,37
2.99348,-0.215261,0.641486,37
3.03094,-0.10574,0.617467,37
3.04534,0.00579017,0.590136,37
2.99767,-0.327507,0.559653,37
3.00221,-0.216311,0.528252,37
3.15306,-0.110827,0.522647,37
3.26255,0.00375463,0.508861,37
3.00533,-0.328185,0.446588,37
3.05109,-0.220849,0.421706,37
3.15716,-0.112626,0.404811,37
3.14199,0.00197074,0.372546,37
3.01557,-0.329303,0.335544,37
3.04454,-0.221337,0.307217,37
3.16678,-0.114132,0.289167,37
3.34184,0.000462964,0.273282,37
3.0028,-0.329234,0.22284,37
3.0138,-0.219525,0.193927,37
3.05441,-0.111149,0.167136,37
3.07486,-0.00118402,0.138983,37
3.02566,-0.332703,0.113157,37
3.01674,-0.221327,0.083435,37
3.01247,-0.110887,0.0544605,37
3.02389,-0.00148105,0.0262307,37
3.36359,-0.37111,0.00230342,37
3.46549,-0.25498,-0.0311738,37
3.07736,-0.114458,-0.0562258,37
3.40467,-0.00374735,-0.0949823,37
3.25697,-0.360727,-0.117867,37
3.26471,-0.241697,-0.148255,37
3.29768,-0.124152,-0.181438,37
3.33605,-0.0047781,-0.215324,37
3.34848,-0.372637,-0.2444,37
3.416,-0.254516,-0.281324,37
3.46994,-0.132638,-0.317915,37
4.12085,-0.0073406,-0.417928,37
4.19754,-0.470019,-0.46228,37
4.1985,-0.31525,-0.500784,37
4.15963,-0.160237,-0.535397,37
4.13057,-0.00865555,-0.572062,37
3.04148,-0.114335,0.73875,37
3.02919,-0.00147208,0.704357,37
4.18802,-0.470565,0.944882,37
2.99671,-0.224737,0.642322,37
3.02374,-0.114778,0.616071,37
3.03357,-0.00353909,0.587853,37
3.00837,-0.33802,0.561843,37
3.00743,-0.225963,0.52929,37
3.14383,-0.120161,0.521176,37
3.2665,-0.00626233,0.509477,37
3.01217,-0.338287,0.447757,37
3.04842,-0.23006,0.421433,37
3.14292,-0.121774,0.403032,37
3.15092,-0.00769057,0.373606,37
3.01158,-0.338221,0.335215,37
3.03889,-0.230301,0.306716,37
3.14054,-0.122835,0.286804,37
3.30495,-0.00968165,0.270266,37
2.99682,-0.337887,0.222472,37
3.01908,-0.229223,0.194311,37
3.04208,-0.120047,0.16648,37
3.07384,-0.0106141,0.138938,37
3.0286,-0.342433,0.113306,37
3.02801,-0.231496,0.0837659,37
3.01811,-0.120367,0.0545689,37
3.03787,-0.010808,0.0263522,37
3.35945,-0.381089,0.00230137,37
3.44974,-0.264464,-0.0310392,37
3.10696,-0.125106,-0.0567735,37
3.39565,-0.0141552,-0.0947313,37
3.24989,-0.370039,-0.117651,37
3.28786,-0.253555,-0.14934,37
3.30127,-0.134431,-0.181657,37
3.34101,-0.0150354,-0.215646,37
3.35227,-0.383475,-0.244762,37
3.42315,-0.265612,-0.281979,37
3.4934,-0.14427,-0.320103,37
4.13375,-0.0200459,-0.41924,37
4.18917,-0.482099,-0.461519,37
4.20346,-0.328593,-0.501492,37
4.17101,-0.173493,-0.536928,37
4.1117,-0.0212307,-0.569456,37
3.04209,-0.123705,0.738985,37
3.01261,-0.0107066,0.700507,37
4.18268,-0.482963,0.944007,37
2.99503,-0.233853,0.642113,37
3.02044,-0.123934,0.615472,37
3.03158,-0.0128376,0.587472,37
3.00049,-0.346458,0.560566,37
3.00181,-0.234805,0.528425,37
3.105,-0.128218,0.514802,37
3.13802,-0.0156435,0.489443,37
3.02389,-0.349001,0.449657,37
3.04572,-0.239256,0.42116,37
3.14848,-0.131665,0.403794,37
3.12308,-0.0172042,0.370309,37
2.99276,-0.345407,0.333236,37
3.03519,-0.239388,0.306416,37
3.15905,-0.133267,0.288531,37
3.19727,-0.0191755,0.261464,37
3.0027,-0.347882,0.222987,37
3.02135,-0.238721,0.194504,37
3.04469,-0.129507,0.166644,37
3.0688,-0.0200119,0.138712,37
3.03448,-0.35253,0.113566,37
3.02529,-0.240626,0.0837107,37
3.02771,-0.130055,0.0547495,37
3.03582,-0.0201147,0.0263348,37
3.36125,-0.391741,0.00230342,37
3.44393,-0.274649,-0.0309944,37
3.12455,-0.135417,-0.057102,37
3.39659,-0.0245801,-0.0947592,37
3.26065,-0.381401,-0.118083,37
3.26018,-0.261484,-0.148119,37
3.30783,-0.144864,-0.182041,37
3.34295,-0.0253005,-0.215775,37
3.32334,-0.390499,-0.242736,37
3.39848,-0.274189,-0.280014,37
3.47603,-0.154236,-0.318553,37
4.13764,-0.0327595,-0.419643,37
4.1857,-0.494715,-0.461301,37
4.20045,-0.341327,-0.501256,37
4.17937,-0.186687,-0.538076,37
4.10072,-0.0337555,-0.567947,37
3.01936,-0.132061,0.73356,37
3.03789,-0.0201168,0.706395,37
4.18215,-0.495908,0.944226,37
2.98162,-0.242012,0.639396,37
3.02102,-0.133243,0.615672,37
3.02858,-0.0221168,0.586901,37
2.99355,-0.354967,0.559471,37
3.00795,-0.244572,0.529635,37
3.05729,-0.135644,0.506958,37
3.11029,-0.0250479,0.485128,37
3.02183,-0.35816,0.449511,37
3.03708,-0.247954,0.420067,37
3.12626,-0.140345,0.400998,37
3.14982,-0.0270156,0.373488,37
3.00156,-0.355757,0.334335,37
3.03048,-0.248374,0.306015,37
3.15664,-0.142868,0.288349,37
3.15733,-0.0286231,0.258204,37
3.01053,-0.358153,0.22365,37
3.00568,-0.246764,0.193543,37
3.04229,-0.138756,0.166535,37
3.06873,-0.0294268,0.138712,37
3.04132,-0.362785,0.113863,37
3.01956,-0.249495,0.0835729,37
3.0303,-0.139481,0.0548037,37
3.04674,-0.029535,0.0264302,37
3.36996,-0.40324,0.00231022,37
3.42015,-0.283315,-0.030788,37
3.16107,-0.146717,-0.0577775,37
3.40849,-0.0351242,-0.0950938,37
3.24954,-0.390211,-0.117723,37
3.2942,-0.274388,-0.149702,37
3.2964,-0.154497,-0.181438,37
3.31891,-0.0353017,-0.214229,37
3.26371,-0.393646,-0.238467,37
3.3857,-0.283616,-0.279032,37
3.45564,-0.163956,-0.316729,37
4.14449,-0.0455299,-0.420349,37
4.16936,-0.505759,-0.459669,37
4.19839,-0.354129,-0.501138,37
4.17184,-0.199177,-0.537183,37
4.09267,-0.0462466,-0.566849,37
3.03836,-0.142232,0.738278,37
3.04073,-0.0294652,0.707075,37
4.1777,-0.508383,0.94357,37
2.99451,-0.252308,0.642322,37
3.02354,-0.142649,0.61627,37
3.03831,-0.03151,0.588804,37
2.98464,-0.3632,0.558011,37
3.00424,-0.25355,0.529117,37
3.07164,-0.145725,0.509409,37
3.11613,-0.034656,0.486053,37
3.00893,-0.365996,0.447757,37
3.01755,-0.255681,0.417473,37
3.12879,-0.150078,0.401379,37
3.12986,-0.0364477,0.371133,37
3.00637,-0.365684,0.334995,37
3.02871,-0.257586,0.305915,37
3.12833,-0.151205,0.285805,37
3.17716,-0.0385514,0.259834,37
3.02625,-0.369442,0.2249,37
3.0238,-0.257593,0.19476,37
3.04384,-0.148186,0.166644,37
3.08061,-0.0389931,0.139254,37
3.45878,-0.423348,0.12954,37
3.02276,-0.259099,0.0836832,37
3.02386,-0.148483,0.0546953,37
3.04364,-0.0388439,0.0264042,37
3.36275,-0.412846,0.00230614,37
3.42026,-0.293892,-0.030797,37
3.35833,-0.1662,-0.061392,37
3.40037,-0.0454742,-0.0948707,37
3.25527,-0.401034,-0.117975,37
3.26847,-0.282343,-0.148571,37
3.30189,-0.164909,-0.181767,37
3.30182,-0.0452513,-0.213134,37
3.35058,-0.414557,-0.244906,37
3.38879,-0.294346,-0.279359,37
3.45314,-0.174456,-0.316547,37
4.15627,-0.0584126,-0.42156,37
4.16581,-0.518303,-0.459452,37
4.1963,-0.366921,-0.50102,37
4.16725,-0.211774,-0.536673,37
4.10143,-0.0589306,-0.568084,37
3.03791,-0.151553,0.738278,37
3.02505,-0.0385951,0.703451,37
4.1616,-0.519385,0.940288,37
3.00249,-0.26226,0.644203,37
3.02798,-0.152171,0.617268,37
3.03133,-0.0407389,0.587472,37
3.00302,-0.37479,0.56166,37
3.00639,-0.263024,0.529635,37
3.06526,-0.154849,0.508428,37
3.10514,-0.0440618,0.484358,37
3.01957,-0.376695,0.449511,37
3.02168,-0.265371,0.418155,37
3.11643,-0.159069,0.399854,37
3.10789,-0.0457284,0.368543,37
3.02003,-0.376752,0.336644,37
3.02692,-0.266789,0.305815,37
3.11393,-0.160086,0.284533,37
3.17603,-0.0482834,0.259752,37
3.02609,-0.378849,0.224974,37
3.02201,-0.266781,0.194696,37
3.04337,-0.157524,0.166644,37
3.07548,-0.0483655,0.139028,37
3.45152,-0.433211,0.129317,37
3.02693,-0.268814,0.083821,37
3.04236,-0.15875,0.0550385,37
3.0465,-0.0482289,0.0264302,37
3.3575,-0.422661,0.00230342,37
3.41038,-0.303586,-0.0307163,37
3.37478,-0.177394,-0.0617023,37
3.41621,-0.0561691,-0.0953169,37
3.25997,-0.411771,-0.118191,37
3.2646,-0.292102,-0.148436,37
3.28542,-0.174192,-0.180889,37
3.27472,-0.0549291,-0.211395,37
3.34731,-0.424584,-0.244762,37
3.38688,-0.304652,-0.279277,37
3.57887,-0.191818,-0.328126,37
4.16104,-0.0712487,-0.422065,37
4.11983,-0.525421,-0.454556,37
4.19911,-0.380151,-0.501492,37
4.17054,-0.224771,-0.537183,37
4.11014,-0.0716687,-0.569319,37
3.02384,-0.160153,0.734976,37
3.00933,-0.047629,0.699827,37
4.15708,-0.531779,0.939632,37
3.00849,-0.272087,0.645667,37
3.03435,-0.161825,0.618664,37
3.0518,-0.050379,0.591467,37
4.66956,-0.597335,0.873694,37
2.99576,-0.271357,0.527907,37
3.04803,-0.163355,0.50565,37
3.09709,-0.0534516,0.483125,37
3.01644,-0.385706,0.449218,37
3.02085,-0.27464,0.418155,37
3.31203,-0.179243,0.42502,37
3.16234,-0.0562341,0.375019,37
3.01984,-0.386141,0.336754,37
3.02113,-0.275622,0.305315,37
3.11144,-0.169531,0.284351,37
3.16989,-0.0579179,0.259263,37
3.0358,-0.389527,0.225783,37
3.03409,-0.277232,0.195528,37
3.05085,-0.167298,0.167081,37
3.07132,-0.0577256,0.138848,37
3.46306,-0.445455,0.1298,37
3.03107,-0.278556,0.0839589,37
3.02589,-0.1672,0.0547495,37
3.04534,-0.0575564,0.0264215,37
3.35619,-0.432959,0.00230342,37
3.40345,-0.313497,-0.0306624,37
3.3832,-0.188247,-0.0618666,37
3.41702,-0.0666691,-0.0953448,37
3.26563,-0.422668,-0.118442,37
3.28557,-0.304143,-0.149431,37
3.2749,-0.183712,-0.18034,37
3.31844,-0.0658466,-0.214229,37
3.3638,-0.437165,-0.246064,37
3.39188,-0.315596,-0.279769,37
3.59318,-0.203642,-0.329493,37
4.17672,-0.0843356,-0.423679,37
4.20385,-0.393588,-0.502201,37
4.17181,-0.237678,-0.537438,37
4.13367,-0.0847655,-0.572611,37
2.99617,-0.167907,0.728371,37
3.00625,-0.056806,0.699148,37
4.1564,-0.544657,0.939851,37
3.01153,-0.28168,0.646503,37
3.01329,-0.169974,0.614475,37
3.05065,-0.0597224,0.591277,37
4.43374,-0.580999,0.8299,37
3.00865,-0.281833,0.530327,37
3.03274,-0.171868,0.503199,37
3.15717,-0.064178,0.492525,37
3.01917,-0.395472,0.449803,37
3.00126,-0.282145,0.415561,37
3.35702,-0.192009,0.430866,37
3.16216,-0.0659358,0.375019,37
3.02554,-0.396308,0.337523,37
3.02225,-0.285076,0.305515,37
3.09698,-0.178274,0.283078,37
3.12884,-0.0667708,0.255921,37
3.04546,-0.400269,0.226592,37
3.00938,-0.284287,0.193991,37
3.03338,-0.175675,0.166153,37
3.06614,-0.0670388,0.138622,37
3.45771,-0.455556,0.129652,37
3.03717,-0.288516,0.0841519,37
3.04233,-0.177473,0.0550566,37
3.04015,-0.0667892,0.0263782,37
3.34989,-0.442599,0.00230001,37
3.42338,-0.325928,-0.0308508,37
3.3846,-0.198743,-0.0619031,37
3.4218,-0.0772649,-0.0954842,37
3.26135,-0.432291,-0.118334,37
3.26772,-0.312604,-0.148662,37
3.2803,-0.194112,-0.180669,37
3.30126,-0.0756385,-0.213134,37
3.33476,-0.443799,-0.244038,37
3.3899,-0.325905,-0.279687,37
3.59851,-0.215022,-0.33004,37
4.2033,-0.0977739,-0.426403,37
4.00322,-0.535533,-0.442044,37
4.21745,-0.407917,-0.503973,37
4.18097,-0.25107,-0.538714,37
4.12646,-0.0972836,-0.571651,37
2.99467,-0.177041,0.728135,37
3.00801,-0.0660716,0.699601,37
4.15761,-0.557795,0.940507,37
3.01552,-0.291388,0.647548,37
3.00982,-0.179044,0.613876,37
3.06714,-0.0694592,0.594511,37
4.20488,-0.564137,0.787383,37
2.98718,-0.28907,0.526697,37
3.03515,-0.181348,0.503689,37
3.33871,-0.0781162,0.520881,37
3.01892,-0.404865,0.449949,37
2.99841,-0.29116,0.415288,37
3.34156,-0.201412,0.42896,37
3.12223,-0.0746869,0.370309,37
3.02234,-0.405324,0.337304,37
3.01245,-0.293479,0.304614,37
3.08847,-0.187293,0.282351,37
3.26313,-0.0796531,0.266924,37
3.03532,-0.408413,0.22593,37
3.01148,-0.293809,0.194183,37
3.02186,-0.184312,0.165552,37
3.06991,-0.0765449,0.138803,37
3.45729,-0.466295,0.129689,37
3.02831,-0.297052,0.0839313,37
3.03179,-0.186193,0.0548759,37
3.03393,-0.0759658,0.0263261,37
3.36833,-0.455555,0.00231363,37
3.42237,-0.336429,-0.0308508,37
3.37999,-0.208879,-0.0618301,37
3.40755,-0.0874036,-0.0950938,37
3.27387,-0.444176,-0.118838,37
3.26078,-0.322039,-0.14839,37
3.26574,-0.203306,-0.1799,37
3.30401,-0.0858441,-0.213327,37
3.32152,-0.452412,-0.24317,37
3.37897,-0.335319,-0.278868,37
3.59584,-0.225936,-0.329858,37
4.21193,-0.110905,-0.427312,37
4.01042,-0.549025,-0.443023,37
4.21025,-0.420262,-0.503264,37
4.18414,-0.264146,-0.539224,37
4.12515,-0.109917,-0.571514,37
3.47364,-0.213436,0.985384,37
2.97762,-0.185202,0.724126,37
3.02727,-0.0757873,0.70413,37
4.16071,-0.571211,0.941601,37
3.01851,-0.301026,0.648384,37
3.01219,-0.18846,0.614475,37
3.04729,-0.078364,0.590706,37
4.29859,-0.59014,0.805266,37
3.00882,-0.300484,0.530672,37
3.0139,-0.18936,0.500257,37
3.33055,-0.0881497,0.519648,37
3.05687,-0.419505,0.455795,37
2.99553,-0.30016,0.415014,37
3.16572,-0.200562,0.406463,37
3.12695,-0.0843994,0.370898,37
3.03586,-0.416621,0.338953,37
3.01648,-0.303217,0.305114,37
3.07397,-0.195881,0.281079,37
3.31867,-0.091197,0.271489,37
3.03208,-0.417451,0.225783,37
3.01056,-0.303046,0.194183,37
3.02327,-0.19371,0.165661,37
3.06467,-0.0858231,0.138577,37
3.42416,-0.472528,0.1285,37
2.99954,-0.303523,0.0831593,37
3.02422,-0.195043,0.0547495,37
3.02769,-0.0851048,0.0262741,37
3.36791,-0.466024,0.00231431,37
3.43922,-0.348743,-0.0310123,37
3.37933,-0.219248,-0.0618301,37
3.40427,-0.0977713,-0.0950101,37
3.27348,-0.454355,-0.118874,37
3.24487,-0.330522,-0.147712,37
3.2631,-0.213194,-0.179791,37
3.30971,-0.0961541,-0.213714,37
3.32308,-0.463013,-0.243387,37
3.35314,-0.343148,-0.276822,37
3.59612,-0.237032,-0.329949,37
4.33886,-0.127569,-0.440227,37
4.01659,-0.562429,-0.443894,37
4.20104,-0.432364,-0.502319,37
4.18726,-0.277244,-0.539734,37
4.13469,-0.122866,-0.572886,37
4.07488,-0.572693,-0.603897,37
3.01631,-0.0847734,0.701639,37
4.15991,-0.584109,0.94182,37
3.74035,-0.384606,0.803687,37
3.0116,-0.197701,0.614475,37
3.03526,-0.0873736,0.588423,37
4.23834,-0.595122,0.794317,37
2.99025,-0.307898,0.527561,37
3.033,-0.199903,0.503526,37
3.3036,-0.0975797,0.515487,37
3.08104,-0.432456,0.459594,37
2.99361,-0.309247,0.414878,37
3.13441,-0.208235,0.402523,37
3.15447,-0.0948279,0.374195,37
3.04047,-0.426762,0.339612,37
3.01455,-0.312368,0.305014,37
3.05646,-0.204182,0.279534,37
3.35722,-0.102565,0.274667,37
3.44556,-0.485154,0.256682,37
3.01954,-0.313311,0.194824,37
3.03064,-0.203519,0.166098,37
3.05241,-0.0948526,0.138035,37
3.43952,-0.485405,0.129132,37
3.02444,-0.31542,0.0838762,37
3.01762,-0.203915,0.0546411,37
3.01542,-0.0940193,0.02617,37
3.36745,-0.476494,0.00231499,37
3.44411,-0.359916,-0.0310661,37
3.38163,-0.229818,-0.0618849,37
3.39197,-0.107834,-0.0946755,37
3.25822,-0.46243,-0.11837,37
3.24682,-0.340789,-0.147847,37
3.2445,-0.221977,-0.178802,37
3.3114,-0.106372,-0.213842,37
3.33053,-0.474472,-0.244038,37
3.35207,-0.353433,-0.276822,37
3.60432,-0.248681,-0.33077,37
4.30862,-0.139911,-0.4372,37
4.02567,-0.576299,-0.44509,37
4.19574,-0.444832,-0.501847,37
4.19134,-0.290432,-0.540372,37
4.14321,-0.135843,-0.57412,37
4.07898,-0.586036,-0.604768,37
3.02674,-0.0943608,0.70413,37
4.15616,-0.596591,0.941382,37
4.15926,-0.44058,0.893984,37
3.00218,-0.206335,0.612679,37
3.0438,-0.0969665,0.590136,37
4.20048,-0.602953,0.787565,37
3.00104,-0.318317,0.529635,37
3.02942,-0.209003,0.503035,37
3.33192,-0.108648,0.519956,37
3.55854,-0.510616,0.531054,37
2.9887,-0.318011,0.414332,37
3.11396,-0.216475,0.399981,37
3.15813,-0.104637,0.374666,37
3.0234,-0.43383,0.337853,37
3.01259,-0.321509,0.304914,37
3.03297,-0.211961,0.277444,37
3.36386,-0.113099,0.275238,37
3.44208,-0.495438,0.256535,37
3.01261,-0.321937,0.194439,37
3.02103,-0.212187,0.165607,37
3.04412,-0.103944,0.137674,37
3.44494,-0.496954,0.129392,37
3.01749,-0.324057,0.0837107,37
3.02596,-0.213807,0.0548037,37
3.02111,-0.103475,0.026222,37
3.35806,-0.485678,0.00230954,37
3.43603,-0.369732,-0.0310033,37
3.40485,-0.241892,-0.062323,37
3.38862,-0.118135,-0.0945918,37
3.24887,-0.471276,-0.118083,37
3.24576,-0.350748,-0.147847,37
3.2946,-0.235562,-0.181602,37
3.31006,-0.116495,-0.213778,37
3.31919,-0.483251,-0.243315,37
3.36286,-0.365006,-0.277804,37
3.60255,-0.259666,-0.330679,37
4.20973,-0.14963,-0.427211,37
4.08585,-0.597712,-0.451945,37
4.18646,-0.45684,-0.500902,37
4.19933,-0.303934,-0.54152,37
4.20513,-0.150789,-0.582763,37
4.0801,-0.598979,-0.605204,37
3.02255,-0.103513,0.703224,37
4.15045,-0.608773,0.940507,37
4.18997,-0.456836,0.900882,37
2.9986,-0.215334,0.612081,37
3.04938,-0.10651,0.591277,37
4.33383,-0.635671,0.81293,37
2.99711,-0.327202,0.529117,37
3.014,-0.217233,0.500584,37
3.31973,-0.118447,0.518107,37
3.54913,-0.520383,0.529885,37
3.01233,-0.329874,0.417746,37
3.04502,-0.221071,0.391211,37
3.20444,-0.116014,0.3802,37
3.40461,-0.499194,0.380621,37
3.00367,-0.329881,0.304113,37
3.03231,-0.221265,0.277444,37
3.36649,-0.123528,0.275482,37
3.44548,-0.506721,0.256903,37
3.02252,-0.332378,0.195144,37
3.01838,-0.221308,0.165498,37
3.0348,-0.112948,0.137267,37
3.40088,-0.501255,0.127794,37
3.04232,-0.336167,0.0844276,37
3.03327,-0.223677,0.0549482,37
3.02378,-0.112855,0.0262481,37
3.3526,-0.495393,0.00230682,37
3.44084,-0.380932,-0.0310572,37
3.39213,-0.25145,-0.062104,37
3.38025,-0.128228,-0.0943687,37
3.22863,-0.478458,-0.1174,37
3.26055,-0.362471,-0.148571,37
3.30282,-0.246337,-0.182096,37
3.31168,-0.126726,-0.213907,37
3.3029,-0.491231,-0.242229,37
3.37163,-0.376427,-0.278623,37
3.60273,-0.270792,-0.33077,37
4.20826,-0.162506,-0.42711,37
4.12431,-0.616267,-0.456405,37
4.18406,-0.469571,-0.500784,37
4.20728,-0.317487,-0.542668,37
4.19772,-0.16342,-0.581803,37
4.08313,-0.612227,-0.60593,37
3.00469,-0.112132,0.699148,37
4.14856,-0.621504,0.940507,37
4.18369,-0.469144,0.899836,37
2.98913,-0.223874,0.610285,37
3.06081,-0.116312,0.59356,37
4.35228,-0.652023,0.816762,37
2.97652,-0.334197,0.52566,37
3.02119,-0.22707,0.501891,37
3.31836,-0.128593,0.517953,37
3.57099,-0.534786,0.533392,37
3.00639,-0.33856,0.417063,37
3.02851,-0.229215,0.389178,37
3.30925,-0.129976,0.392681,37
3.42469,-0.512875,0.38304,37
2.99573,-0.338313,0.303412,37
3.02665,-0.23019,0.27699,37
3.3651,-0.133816,0.275401,37
3.44292,-0.517141,0.256829,37
3.01356,-0.340753,0.194632,37
3.01171,-0.230111,0.16517,37
3.02845,-0.122017,0.136997,37
3.39538,-0.511091,0.127646,37
3.05816,-0.347418,0.0848964,37
3.03456,-0.233135,0.0549843,37
3.01942,-0.12197,0.0262134,37
3.34513,-0.504781,0.00230273,37
3.42674,-0.390017,-0.0309405,37
3.36143,-0.259546,-0.0615563,37
3.37884,-0.138557,-0.0943409,37
3.21924,-0.487165,-0.117112,37
3.26042,-0.372585,-0.148616,37
3.27418,-0.254304,-0.180559,37
3.31227,-0.136927,-0.213971,37
3.2994,-0.501062,-0.242085,37
3.42492,-0.393019,-0.283124,37
3.60387,-0.281999,-0.330952,37
4.28329,-0.178566,-0.434778,37
4.15188,-0.633415,-0.459669,37
4.18851,-0.483088,-0.501492,37
4.20036,-0.329927,-0.541903,37
4.21898,-0.177212,-0.584821,37
4.08612,-0.6255,-0.606656,37
3.01018,-0.121585,0.700507,37
4.1476,-0.634376,0.940726,37
4.1832,-0.482089,0.900045,37
2.98648,-0.232891,0.609886,37
3.04867,-0.125219,0.591277,37
3.94595,-0.603533,0.740852,37
2.99505,-0.345586,0.529117,37
2.97425,-0.232721,0.49421,37
3.33374,-0.139434,0.520419,37
3.5664,-0.54529,0.532954,37
3.01517,-0.348921,0.418428,37
3.03174,-0.238816,0.389686,37
3.32669,-0.140884,0.3948,37
3.44766,-0.527135,0.385788,37
2.97886,-0.345667,0.30181,37
3.03585,-0.24026,0.277899,37
3.37164,-0.144438,0.275971,37
3.44526,-0.528306,0.257123,37
3.00853,-0.349536,0.194375,37
3.01198,-0.239429,0.165225,37
3.05401,-0.132433,0.138171,37
3.37601,-0.518774,0.126977,37
3.45125,-0.402803,0.0958427,37
3.02387,-0.241648,0.0548037,37
3.01704,-0.131146,0.026196,37
3.34752,-0.515651,0.00230546,37
3.36097,-0.392979,-0.0303574,37
3.39052,-0.272259,-0.062104,37
3.37641,-0.148834,-0.0942851,37
3.22366,-0.497954,-0.117328,37
3.26323,-0.383052,-0.148797,37
3.29229,-0.265875,-0.181602,37
3.30586,-0.146823,-0.213585,37
3.29883,-0.511335,-0.242157,37
3.47912,-0.410057,-0.287708,37
3.59703,-0.29257,-0.330405,37
4.28968,-0.192017,-0.435484,37
4.10081,-0.638503,-0.454229,37
4.18997,-0.496286,-0.501847,37
4.19142,-0.342167,-0.540883,37
4.23227,-0.19078,-0.586741,37
4.09787,-0.640171,-0.608688,37
3.01271,-0.130947,0.701186,37
4.14756,-0.647399,0.941163,37
4.17684,-0.494346,0.899,37
2.98868,-0.24229,0.610485,37
3.04827,-0.134571,0.591277,37
3.89065,-0.607296,0.730815,37
2.99984,-0.355468,0.530154,37
2.99811,-0.243844,0.498296,37
3.29086,-0.147755,0.513792,37
3.57351,-0.557602,0.534269,37
2.98261,-0.354429,0.414058,37
3.02803,-0.247874,0.389305,37
3.34113,-0.151765,0.396566,37
3.40675,-0.531581,0.38139,37
2.9936,-0.356688,0.303412,37
3.03113,-0.249246,0.277535,37
3.34629,-0.153639,0.273934,37
3.43771,-0.537949,0.256682,37
3.01339,-0.359474,0.19476,37
3.00726,-0.24834,0.165006,37
3.02864,-0.140643,0.137042,37
3.36947,-0.528355,0.126791,37
3.44404,-0.412676,0.0956773,37
3.01713,-0.250428,0.0546953,37
3.0316,-0.141099,0.0263261,37
3.35481,-0.527316,0.00231158,37
3.35081,-0.402216,-0.0302767,37
3.39465,-0.283075,-0.0621952,37
3.38392,-0.159569,-0.0945082,37
3.21915,-0.507375,-0.11722,37
3.27096,-0.394138,-0.149205,37
3.27952,-0.274973,-0.180943,37
3.29841,-0.156633,-0.213134,37
3.31498,-0.524258,-0.243459,37
3.58965,-0.434255,-0.296957,37
3.57825,-0.302096,-0.328764,37
4.31292,-0.206318,-0.437906,37
4.06839,-0.646247,-0.450857,37
4.1904,-0.509378,-0.502083,37
4.1775,-0.353936,-0.539224,37
4.23859,-0.204097,-0.587702,37
4.1252,-0.657411,-0.613045,37
3.00256,-0.139736,0.698921,37
4.13496,-0.658432,0.938757,37
4.17531,-0.507158,0.899,37
2.99671,-0.252197,0.61228,37
3.04784,-0.143923,0.591277,37
3.90236,-0.621394,0.73337,37
3.00265,-0.365145,0.530845,37
3.00029,-0.25329,0.498786,37
3.11077,-0.149234,0.485745,37
3.58937,-0.571362,0.536899,37
3.01101,-0.367175,0.418155,37
3.00057,-0.254896,0.385873,37
3.36147,-0.163025,0.399039,37
3.44927,-0.549061,0.386338,37
2.99545,-0.366233,0.303712,37
3.03333,-0.258798,0.277808,37
3.29603,-0.161466,0.269859,37
3.45377,-0.551323,0.258006,37
3.03803,-0.371869,0.196425,37
3.00946,-0.25782,0.16517,37
2.99427,-0.148255,0.135506,37
3.37178,-0.539321,0.12694,37
3.44574,-0.423606,0.09576,37
3.02332,-0.260283,0.0548217,37
3.02816,-0.150251,0.0263001,37
3.34725,-0.536656,0.0023075,37
3.35254,-0.412861,-0.0303036,37
3.39177,-0.293316,-0.0621587,37
3.42435,-0.172006,-0.0956515,37
3.21265,-0.516456,-0.11704,37
3.27569,-0.404906,-0.149476,37
3.24683,-0.282266,-0.179187,37
3.29393,-0.16655,-0.212876,37
3.31828,-0.53522,-0.243821,37
3.61798,-0.448948,-0.299413,37
3.57731,-0.313072,-0.328764,37
4.32021,-0.219954,-0.438713,37
4.16648,-0.674939,-0.461954,37
4.1967,-0.523215,-0.503028,37
4.17244,-0.366403,-0.538714,37
4.22904,-0.216643,-0.586467,37
4.14953,-0.674349,-0.616965,37
3.00017,-0.148851,0.698468,37
4.13099,-0.670802,0.938319,37
4.16791,-0.51924,0.897746,37
3.0008,-0.261816,0.613278,37
3.02778,-0.152286,0.587472,37
3.9247,-0.637303,0.737932,37
3.00543,-0.374843,0.531537,37
3.01424,-0.263783,0.501238,37
3.08464,-0.157467,0.481738,37
3.60517,-0.585225,0.53953,37
2.99021,-0.373952,0.415424,37
3.00472,-0.264535,0.386509,37
3.38972,-0.174821,0.402454,37
3.46817,-0.562985,0.388647,37
2.99925,-0.37604,0.304213,37
3.01665,-0.2667,0.276354,37
3.3005,-0.171836,0.270266,37
3.45895,-0.563038,0.258521,37
3.0438,-0.382058,0.196873,37
3.01164,-0.267317,0.165334,37
2.99779,-0.15765,0.135687,37
3.36814,-0.549341,0.126866,37
3.43748,-0.433301,0.095567,37
3.03346,-0.270534,0.0550204,37
3.04766,-0.160593,0.0264736,37
3.35546,-0.548536,0.00231431,37
3.36018,-0.424272,-0.0303843,37
3.3809,-0.302828,-0.0619762,37
3.41282,-0.181925,-0.0953448,37
3.2071,-0.525663,-0.116897,37
3.27938,-0.415582,-0.149702,37
3.25788,-0.2933,-0.179846,37
3.28543,-0.176227,-0.212361,37
3.32647,-0.547016,-0.244544,37
3.63438,-0.462309,-0.300886,37
3.59517,-0.325753,-0.330496,37
4.32051,-0.23326,-0.438814,37
4.19774,-0.693226,-0.465653,37
4.19212,-0.53571,-0.502673,37
4.16043,-0.378215,-0.537311,37
4.19571,-0.227844,-0.58194,37
4.12987,-0.684166,-0.614351,37
3.01818,-0.159028,0.702771,37
4.12892,-0.683473,0.938319,37
4.15951,-0.531157,0.896283,37
3.0156,-0.272431,0.61647,37
3.02926,-0.161679,0.587853,37
3.94309,-0.652713,0.741764,37
3.02185,-0.38631,0.534648,37
2.99181,-0.271071,0.497642,37
3.06836,-0.166076,0.479272,37
3.58287,-0.592891,0.536461,37
3.01361,-0.386273,0.418838,37
3.01179,-0.274472,0.387526,37
3.42585,-0.187224,0.40681,37
3.44878,-0.570702,0.386668,37
3.00795,-0.386508,0.305214,37
3.01681,-0.276044,0.276445,37
3.16461,-0.174499,0.259182,37
3.45524,-0.57332,0.258374,37
3.03371,-0.390249,0.196297,37
3.01677,-0.277103,0.165661,37
3.01824,-0.168013,0.136635,37
3.38221,-0.562294,0.12746,37
3.43217,-0.443332,0.0954567,37
3.03262,-0.27984,0.0550204,37
3.03916,-0.169497,0.0264042,37
3.35376,-0.558828,0.00231431,37
3.36978,-0.43599,-0.030483,37
3.36602,-0.311908,-0.0617206,37
3.41524,-0.192564,-0.0954284,37
3.19956,-0.534512,-0.116681,37
3.27809,-0.425641,-0.149702,37
3.2679,-0.304312,-0.180449,37
3.28487,-0.186306,-0.212361,37
3.3651,-0.563978,-0.247511,37
3.64184,-0.474616,-0.301623,37
3.59912,-0.337246,-0.330952,37
4.3317,-0.247195,-0.440025,37
4.19657,-0.706266,-0.465762,37
4.1944,-0.549084,-0.503146,37
4.15925,-0.390977,-0.537311,37
4.13361,-0.697821,-0.615223,37
3.0099,-0.167853,0.70096,37
4.12391,-0.69565,0.937663,37
4.15592,-0.543662,0.895865,37
3.0089,-0.281135,0.615273,37
3.01894,-0.170419,0.58595,37
3.94398,-0.665298,0.742311,37
3.73748,-0.489454,0.661526,37
2.98899,-0.280065,0.497315,37
3.06882,-0.175545,0.479426,37
3.60737,-0.608322,0.540407,37
3.00652,-0.394743,0.418019,37
3.00699,-0.283339,0.387017,37
3.44509,-0.198878,0.409165,37
3.46661,-0.584586,0.388867,37
3.00675,-0.395734,0.305214,37
3.02388,-0.286049,0.277172,37
3.09342,-0.180094,0.253395,37
3.45248,-0.583752,0.2583,37
3.02656,-0.398772,0.195913,37
3.0169,-0.286451,0.165716,37
3.03167,-0.178092,0.137267,37
3.44451,-0.583517,0.129875,37
3.4407,-0.455171,0.0957324,37
3.0417,-0.290091,0.0552011,37
3.04162,-0.178996,0.0264302,37
3.36287,-0.570956,0.00232179,37
3.36842,-0.446327,-0.030483,37
3.38594,-0.324235,-0.062104,37
3.41164,-0.202863,-0.0953448,37
3.20677,-0.545835,-0.117004,37
3.28767,-0.437144,-0.1502,37
3.27292,-0.31491,-0.180779,37
3.27632,-0.195906,-0.211846,37
3.31813,-0.566577,-0.244183,37
3.65222,-0.487369,-0.302605,37
3.59311,-0.347807,-0.330496,37
4.32992,-0.260423,-0.439924,37
4.18949,-0.718298,-0.465218,37
4.14939,-0.556146,-0.497949,37
4.17185,-0.405078,-0.539097,37
4.14022,-0.712009,-0.616529,37
3.03271,-0.17846,0.706395,37
4.13715,-0.710943,0.941163,37
4.15714,-0.556799,0.896492,37
3.0129,-0.290835,0.61627,37
3.02331,-0.179972,0.586901,37
3.92739,-0.674897,0.739574,37
3.74767,-0.502489,0.6636,37
2.9783,-0.288283,0.495681,37
3.05545,-0.184186,0.477423,37
3.59866,-0.618213,0.539384,37
3.02886,-0.407133,0.421296,37
3.00314,-0.292274,0.386636,37
3.47519,-0.211315,0.412815,37
3.46089,-0.594545,0.388427,37
3.02031,-0.40695,0.306716,37
3.02794,-0.295809,0.277626,37
3.06599,-0.187937,0.251194,37
3.43397,-0.591464,0.25705,37
3.0728,-0.414458,0.198987,37
3.02495,-0.296583,0.166207,37
3.02812,-0.187207,0.137132,37
3.39445,-0.585755,0.128054,37
3.4383,-0.465591,0.0957049,37
3.03084,-0.298442,0.0550204,37
3.04705,-0.188698,0.0264823,37
3.35519,-0.580248,0.00231771,37
3.3928,-0.460153,-0.0307163,37
3.36503,-0.332654,-0.0617388,37
3.414,-0.213516,-0.0954284,37
3.2169,-0.557719,-0.117436,37
3.28928,-0.447633,-0.150336,37
3.263,-0.324062,-0.180285,37
3.30259,-0.207648,-0.213585,37
3.32719,-0.578634,-0.244979,37
3.64775,-0.498167,-0.30236,37
3.57617,-0.357245,-0.329038,37
4.32116,-0.273204,-0.439117,37
4.18041,-0.72995,-0.464456,37
4.05518,-0.55619,-0.486847,37
4.18638,-0.419457,-0.541138,37
4.15459,-0.727609,-0.618998,37
3.48782,-0.21207,0.953431,37
3.01368,-0.186619,0.702092,37
4.12629,-0.722118,0.939194,37
4.1525,-0.569152,0.895865,37
3.02857,-0.301729,0.619662,37
3.01588,-0.188817,0.58557,37
3.91949,-0.685926,0.738479,37
3.77246,-0.517599,0.668267,37
2.98035,-0.297713,0.496171,37
3.04007,-0.192622,0.475111,37
3.60259,-0.630274,0.54026,37
3.03152,-0.416963,0.421843,37
3.00815,-0.302081,0.387398,37
3.39128,-0.216658,0.402925,37
3.48058,-0.608928,0.390846,37
3.00131,-0.413768,0.304914,37
3.01117,-0.303499,0.276172,37
3.05645,-0.196766,0.250461,37
3.46848,-0.608371,0.259772,37
3.35919,-0.463584,0.217624,37
3.01509,-0.304957,0.165716,37
3.03052,-0.196691,0.137267,37
3.45661,-0.607409,0.130469,37
3.42398,-0.474354,0.0953464,37
3.04086,-0.308851,0.0552191,37
3.0255,-0.196683,0.0263001,37
3.34454,-0.588978,0.00231158,37
3.37453,-0.468223,-0.0305638,37
3.37792,-0.344396,-0.0619944,37
3.40734,-0.223596,-0.0952611,37
3.21222,-0.567064,-0.117328,37
3.29086,-0.458135,-0.150471,37
3.28582,-0.336512,-0.181602,37
3.28402,-0.216597,-0.212425,37
3.3362,-0.590752,-0.245774,37
3.63929,-0.508391,-0.301787,37
3.56911,-0.367602,-0.328491,37
4.3203,-0.28646,-0.439117,37
4.18206,-0.743468,-0.464892,37
4.04559,-0.567525,-0.485902,37
4.19297,-0.433114,-0.542158,37
4.19422,-0.747819,-0.625242,37
3.016,-0.196054,0.702771,37
4.14493,-0.581075,0.894611,37
3.02373,-0.310618,0.618864,37
3.0241,-0.198648,0.587282,37
3.91252,-0.697085,0.737567,37
3.79134,-0.532045,0.671897,37
2.98629,-0.307563,0.497315,37
3.03553,-0.201686,0.474495,37
3.60454,-0.642017,0.540845,37
3.03121,-0.4264,0.421979,37
2.99833,-0.310389,0.386255,37
3.09335,-0.207155,0.367601,37
3.49338,-0.622218,0.392495,37
3.02663,-0.426725,0.307618,37
3.01121,-0.312839,0.276263,37
3.04191,-0.205203,0.24932,37
3.43813,-0.613925,0.257638,37
3.42297,-0.483092,0.221851,37
3.01613,-0.314413,0.165825,37
3.0329,-0.20619,0.137403,37
3.44588,-0.616427,0.130135,37
3.43142,-0.486118,0.0955946,37
3.06277,-0.320572,0.0556346,37
3.01989,-0.205624,0.0262567,37
3.33385,-0.597648,0.00230546,37
3.38001,-0.479557,-0.0306266,37
3.39177,-0.356324,-0.0622682,37
3.39767,-0.233432,-0.0950101,37
3.18686,-0.572675,-0.116465,37
3.26076,-0.464147,-0.149159,37
3.26095,-0.344077,-0.180285,37
3.29429,-0.227427,-0.213134,37
3.35204,-0.604169,-0.247077,37
3.58641,-0.512226,-0.29753,37
3.56401,-0.37813,-0.328126,37
4.32139,-0.29985,-0.439319,37
4.19737,-0.759481,-0.46685,37
4.03302,-0.578383,-0.484603,37
4.2005,-0.44692,-0.543306,37
4.24155,-0.769693,-0.632647,37
4.0779,-0.587216,-0.644064,37
3.02413,-0.205901,0.70481,37
4.13829,-0.593095,0.893566,37
3.02763,-0.320409,0.619861,37
3.0176,-0.20752,0.58614,37
3.89198,-0.705752,0.7341,37
3.78676,-0.543255,0.671378,37
2.99318,-0.317556,0.498623,37
3.03292,-0.210861,0.474187,37
3.58114,-0.649191,0.53763,37
3.50055,-0.503378,0.487529,37
3.02202,-0.322216,0.389432,37
3.07289,-0.215256,0.365246,37
3.50123,-0.634706,0.393594,37
3.14249,-0.452898,0.319534,37
2.99935,-0.32091,0.275263,37
3.03928,-0.214394,0.249157,37
3.44212,-0.62554,0.25808,37
3.47481,-0.501286,0.225309,37
3.01912,-0.324091,0.166044,37
3.03723,-0.215848,0.137629,37
3.45577,-0.629144,0.130581,37
3.4774,-0.503519,0.0969181,37
3.43952,-0.370677,0.0624986,37
3.02424,-0.215243,0.0263001,37
3.34086,-0.609488,0.00231158,37
3.34389,-0.484902,-0.0303126,37
3.3161,-0.358665,-0.0608991,37
3.4089,-0.244714,-0.0953448,37
3.19394,-0.584067,-0.116789,37
3.26821,-0.475443,-0.149567,37
3.24697,-0.352678,-0.179571,37
3.31448,-0.23904,-0.214487,37
3.37666,-0.619308,-0.24903,37
3.56608,-0.520491,-0.295975,37
3.56877,-0.389711,-0.328673,37
4.31648,-0.312819,-0.438915,37
4.1784,-0.769295,-0.465,37
4.02435,-0.589745,-0.483776,37
4.19615,-0.459481,-0.542924,37
4.06209,-0.750007,-0.60622,37
4.0839,-0.600875,-0.645299,37
2.9992,-0.21345,0.699148,37
4.12967,-0.604796,0.892103,37
3.03248,-0.330333,0.621058,37
3.03752,-0.218255,0.590136,37
3.95071,-0.728928,0.745596,37
3.78411,-0.554727,0.671206,37
2.99612,-0.327166,0.499276,37
3.03522,-0.220379,0.474649,37
3.57135,-0.658739,0.536461,37
3.58524,-0.526788,0.499547,37
3.01116,-0.330404,0.388161,37
3.05538,-0.223452,0.363245,37
3.50513,-0.646526,0.394254,37
3.41769,-0.503268,0.347672,37
3.00231,-0.330546,0.275627,37
3.01475,-0.221961,0.247201,37
3.44704,-0.637367,0.258595,37
3.415,-0.503359,0.22153,37
3.02109,-0.333681,0.166207,37
3.02659,-0.224427,0.137177,37
3.45972,-0.640835,0.130803,37
3.44024,-0.508919,0.0959255,37
3.42644,-0.379906,0.0622818,37
3.03952,-0.225705,0.0264389,37
3.33996,-0.619917,0.00231226,37
3.32161,-0.492082,-0.0301242,37
3.30903,-0.368174,-0.0607896,37
3.41012,-0.25532,-0.0954006,37
3.21178,-0.597519,-0.117508,37
3.24994,-0.482971,-0.148797,37
3.26473,-0.364745,-0.180614,37
3.32467,-0.250031,-0.215195,37
3.40317,-0.634969,-0.251128,37
3.5349,-0.527021,-0.29352,37
3.57152,-0.401103,-0.329038,37
4.25201,-0.321263,-0.432457,37
4.02946,-0.754662,-0.448681,37
4.05984,-0.607675,-0.488264,37
4.1957,-0.472463,-0.543051,37
3.89641,-0.731785,-0.581826,37
4.08594,-0.613989,-0.645917,37
3.02184,-0.224381,0.704583,37
4.122,-0.616595,0.890849,37
3.03145,-0.339635,0.621058,37
3.02117,-0.226399,0.587092,37
3.77751,-0.565604,0.670341,37
2.97451,-0.334044,0.495844,37
3.05325,-0.231107,0.477577,37
3.56834,-0.66951,0.536315,37
3.53462,-0.530434,0.492719,37
3.01802,-0.34053,0.389178,37
3.05567,-0.2329,0.363362,37
3.50216,-0.657093,0.394144,37
3.43876,-0.517154,0.349975,37
2.97951,-0.337291,0.273627,37
3.0061,-0.2306,0.246548,37
3.47546,-0.653654,0.260875,37
3.43318,-0.516804,0.222811,37
3.04287,-0.345539,0.167463,37
3.02689,-0.233788,0.137222,37
3.45774,-0.651446,0.130803,37
3.39319,-0.512603,0.0946571,37
3.44016,-0.392114,0.0625528,37
3.0408,-0.235183,0.0264562,37
3.3459,-0.631645,0.00231771,37
3.35964,-0.508253,-0.030483,37
3.26417,-0.373325,-0.0599864,37
3.40833,-0.265703,-0.0953727,37
3.22171,-0.609599,-0.117939,37
3.2603,-0.494738,-0.14934,37
3.27252,-0.375784,-0.181108,37
3.31096,-0.259217,-0.214358,37
3.72261,-0.706397,-0.274859,37
3.51848,-0.535613,-0.292292,37
3.58511,-0.413771,-0.330405,37
4.30456,-0.338519,-0.437906,37
3.85135,-0.733542,-0.429097,37
4.1355,-0.631978,-0.497595,37
4.18832,-0.484649,-0.542286,37
3.83778,-0.73297,-0.573404,37
4.09674,-0.628469,-0.647925,37
3.026,-0.234026,0.705716,37
4.12202,-0.629533,0.891267,37
4.77777,-0.550134,0.979169,37
3.02046,-0.235667,0.587092,37
3.76213,-0.575107,0.667921,37
2.95485,-0.341019,0.492739,37
3.04267,-0.239697,0.476036,37
3.57793,-0.68268,0.538068,37
3.54277,-0.542776,0.494084,37
3.00415,-0.348303,0.387526,37
3.04603,-0.241567,0.362303,37
3.46498,-0.661129,0.390186,37
3.44011,-0.528155,0.350276,37
2.99923,-0.348847,0.275536,37
3.03916,-0.242517,0.24932,37
3.49303,-0.66806,0.262347,37
3.51739,-0.540522,0.228383,37
3.03088,-0.3536,0.166863,37
3.01719,-0.242353,0.136816,37
3.4567,-0.662239,0.130841,37
3.4084,-0.5256,0.0951258,37
3.44986,-0.403946,0.0627515,37
3.04306,-0.244752,0.0264823,37
3.34787,-0.642662,0.00232043,37
3.30272,-0.510012,-0.0299807,37
3.25209,-0.382054,-0.0597856,37
3.40152,-0.275674,-0.0952053,37
3.29441,-0.63383,-0.120671,37
3.23211,-0.50061,-0.148119,37
3.25846,-0.384302,-0.180394,37
3.32706,-0.27075,-0.215453,37
3.83991,-0.740866,-0.283686,37
3.53061,-0.548547,-0.293438,37
3.62041,-0.429105,-0.333778,37
4.31143,-0.352372,-0.438713,37
3.82274,-0.740252,-0.42616,37
4.09135,-0.638083,-0.492516,37
4.18485,-0.497263,-0.542031,37
3.81803,-0.741346,-0.570791,37
4.10064,-0.641951,-0.648852,37
4.101,-0.329826,0.956657,37
4.1133,-0.641122,0.889803,37
4.79357,-0.566861,0.98276,37
3.01483,-0.244535,0.58614,37
3.77981,-0.589683,0.671378,37
2.98906,-0.354263,0.498623,37
3.02223,-0.247419,0.472954,37
3.53423,-0.552571,0.493128,37
3.00307,-0.357518,0.387526,37
3.03934,-0.250422,0.361596,37
2.99617,-0.357811,0.275354,37
3.03244,-0.251346,0.248831,37
3.55753,-0.691717,0.267349,37
3.02879,-0.362779,0.166808,37
3.00947,-0.251028,0.1365,37
3.43868,-0.413335,0.0625708,37
3.05027,-0.254752,0.0265517,37
3.34589,-0.65293,0.00232043,37
3.30608,-0.52092,-0.0300255,37
3.25487,-0.392509,-0.0598586,37
3.40464,-0.286444,-0.0953169,37
3.32482,-0.650264,-0.121857,37
3.22562,-0.509744,-0.147893,37
3.27709,-0.396697,-0.181492,37
3.31428,-0.279948,-0.21468,37
3.83272,-0.751683,-0.283324,37
3.53383,-0.560157,-0.293847,37
4.29722,-0.522697,-0.396322,37
4.32322,-0.36669,-0.440025,37
3.80191,-0.748329,-0.424093,37
4.11095,-0.654065,-0.495114,37
4.17444,-0.509019,-0.540883,37
3.79827,-0.749608,-0.568177,37
4.12207,-0.658268,-0.652559,37
4.21062,-0.351647,0.982476,37
4.10745,-0.653124,0.888967,37
4.77819,-0.579912,0.979967,37
3.017,-0.254031,0.586711,37
3.78285,-0.602051,0.672243,37
2.986,-0.363193,0.498296,37
3.02638,-0.257108,0.473724,37
3.00097,-0.366609,0.387398,37
3.03163,-0.259153,0.360772,37
2.98122,-0.365305,0.274082,37
3.02868,-0.260392,0.248586,37
3.53289,-0.698181,0.265657,37
3.03361,-0.3728,0.167136,37
3.01565,-0.260862,0.136816,37
3.43938,-0.424127,0.062607,37
3.0405,-0.263333,0.0264736,37
3.34877,-0.664164,0.00232384,37
3.30348,-0.530902,-0.0300165,37
3.26854,-0.404334,-0.0601324,37
3.38682,-0.295411,-0.0948428,37
3.31104,-0.658123,-0.121426,37
3.22602,-0.519955,-0.147983,37
3.27883,-0.407118,-0.181657,37
3.29054,-0.288113,-0.213198,37
3.80888,-0.759149,-0.281733,37
3.53899,-0.572109,-0.29442,37
4.29165,-0.535385,-0.395957,37
4.33298,-0.380911,-0.441135,37
3.77328,-0.754725,-0.421155,37
4.16186,-0.675262,-0.501492,37
4.18172,-0.522931,-0.542031,37
3.7814,-0.758339,-0.565999,37
4.13661,-0.673611,-0.655184,37
4.21146,-0.364731,0.982929,37
4.09867,-0.664627,0.887504,37
4.75694,-0.592147,0.975977,37
3.01621,-0.263286,0.586711,37
3.78001,-0.613496,0.67207,37
2.98683,-0.372597,0.498623,37
3.02262,-0.266131,0.473262,37
3.55597,-0.712472,0.53573,37
3.52491,-0.573293,0.492309,37
3.00574,-0.376554,0.388161,37
3.02785,-0.26819,0.360419,37
3.48993,-0.69924,0.393704,37
3.44885,-0.562035,0.351678,37
2.99985,-0.376933,0.275899,37
3.02092,-0.269063,0.248016,37
3.4926,-0.701359,0.262788,37
3.49257,-0.569659,0.227102,37
3.04137,-0.383229,0.167627,37
3.01384,-0.270023,0.136771,37
3.473,-0.698558,0.131695,37
3.35113,-0.548392,0.0936645,37
3.44203,-0.435179,0.0626792,37
3.04267,-0.272928,0.0264996,37
3.33005,-0.671077,0.00231226,37
3.32453,-0.544753,-0.0302229,37
3.30299,-0.418888,-0.0607896,37
3.35503,-0.303013,-0.0939783,37
3.34329,-0.675202,-0.122684,37
3.23919,-0.53228,-0.148662,37
3.27757,-0.417175,-0.181657,37
3.28268,-0.297576,-0.212748,37
3.83292,-0.776176,-0.283686,37
3.57753,-0.589609,-0.297776,37
4.24455,-0.542739,-0.391763,37
4.30999,-0.392219,-0.438915,37
3.76218,-0.764516,-0.420176,37
4.17348,-0.690295,-0.503146,37
4.17222,-0.534749,-0.54101,37
3.73252,-0.760456,-0.559029,37
4.14427,-0.687917,-0.656729,37
4.21226,-0.377824,0.983382,37
4.09758,-0.677358,0.887713,37
4.75219,-0.606367,0.975379,37
3.01245,-0.272273,0.58614,37
3.782,-0.625733,0.672761,37
3.00035,-0.383635,0.501074,37
3.01785,-0.275045,0.472646,37
3.54408,-0.721405,0.534269,37
3.51238,-0.582322,0.490807,37
3.01441,-0.387037,0.389432,37
3.02009,-0.276843,0.359594,37
3.479,-0.708159,0.392715,37
3.42944,-0.569678,0.349875,37
2.9888,-0.384863,0.274991,37
3.0042,-0.276867,0.246712,37
3.48066,-0.710077,0.262052,37
3.47702,-0.57808,0.226206,37
3.04315,-0.392941,0.167791,37
3.02891,-0.280744,0.137493,37
3.45909,-0.706809,0.131249,37
3.3593,-0.560315,0.0939402,37
3.43969,-0.445608,0.0626612,37
3.0697,-0.284848,0.0267425,37
3.33974,-0.683697,0.00232043,37
3.3406,-0.557915,-0.0303843,37
3.26897,-0.424768,-0.0601872,37
3.30831,-0.309028,-0.0926955,37
3.35198,-0.687666,-0.123079,37
3.19814,-0.535615,-0.146852,37
3.28122,-0.427874,-0.181932,37
3.26983,-0.306528,-0.211975,37
3.82369,-0.786525,-0.28318,37
4.07796,-0.68494,-0.339602,37
3.99305,-0.523036,-0.368697,37
4.31273,-0.405812,-0.439319,37
3.75495,-0.77505,-0.419632,37
4.17134,-0.703096,-0.503146,37
4.17351,-0.547934,-0.541393,37
3.71079,-0.767894,-0.556125,37
4.15968,-0.703594,-0.659509,37
4.2043,-0.390116,0.981796,37
4.09838,-0.690413,0.88834,37
4.75613,-0.621705,0.976576,37
3.01649,-0.28197,0.587092,37
3.76161,-0.634222,0.669477,37
2.99818,-0.39271,0.500911,37
3.01306,-0.283931,0.472029,37
3.54281,-0.732475,0.534415,37
3.49398,-0.59029,0.488485,37
3.02697,-0.398094,0.391211,37
3.02318,-0.286482,0.360065,37
3.47584,-0.718628,0.392605,37
3.4316,-0.580861,0.350276,37
2.99847,-0.395463,0.27599,37
3.01425,-0.287122,0.247608,37
3.46772,-0.718526,0.261243,37
3.46441,-0.586911,0.225501,37
3.33395,-0.440893,0.183898,37
3.02804,-0.290035,0.137493,37
3.45886,-0.717824,0.131324,37
3.34869,-0.569111,0.0936921,37
3.44921,-0.457606,0.0628598,37
3.14944,-0.301996,0.0274451,37
3.32979,-0.692311,0.00231499,37
3.34478,-0.569168,-0.0304382,37
3.26468,-0.434399,-0.0601324,37
3.28048,-0.316584,-0.0919426,37
3.33713,-0.695296,-0.122612,37
3.18958,-0.544248,-0.146535,37
3.29573,-0.440053,-0.18281,37
3.27781,-0.317424,-0.212554,37
3.80661,-0.795193,-0.282094,37
4.12201,-0.705349,-0.343449,37
3.98748,-0.534755,-0.368332,37
4.21442,-0.40961,-0.429431,37
3.75061,-0.786159,-0.419414,37
4.16427,-0.71505,-0.502555,37
4.15805,-0.558886,-0.539607,37
3.66388,-0.769915,-0.549446,37
4.30452,-0.741685,-0.682831,37
4.20114,-0.402826,0.981344,37
4.09817,-0.703315,0.888758,37
4.29578,-0.574939,0.88241,37
3.02636,-0.292262,0.589184,37
3.77518,-0.648427,0.672243,37
3.32061,-0.44531,0.555006,37
2.99349,-0.291355,0.469101,37
3.51054,-0.737039,0.529885,37
3.47067,-0.59731,0.485481,37
3.05031,-0.410687,0.394389,37
3.0213,-0.295659,0.359948,37
3.47265,-0.729084,0.392495,37
3.44648,-0.59426,0.351978,37
3.02586,-0.408524,0.278626,37
3.01038,-0.296075,0.247364,37
3.46257,-0.728546,0.261023,37
3.45374,-0.59601,0.224925,37
3.36029,-0.45487,0.185427,37
3.02216,-0.298832,0.137267,37
3.45664,-0.728432,0.131324,37
3.35875,-0.581428,0.0940229,37
3.42698,-0.46536,0.0624805,37
3.34751,-0.331357,0.0291799,37
3.40299,-0.718429,0.0023674,37
3.34992,-0.580622,-0.030501,37
3.26531,-0.444683,-0.0601689,37
3.24865,-0.323575,-0.0910781,37
3.39951,-0.719183,-0.124984,37
3.19282,-0.554886,-0.146762,37
3.27952,-0.448135,-0.181987,37
3.26888,-0.326685,-0.212039,37
3.80903,-0.807902,-0.282456,37
4.13652,-0.720901,-0.344841,37
3.98779,-0.547256,-0.368515,37
4.18345,-0.419559,-0.426403,37
3.76374,-0.800972,-0.421155,37
4.15032,-0.72577,-0.501138,37
4.05707,-0.557991,-0.526723,37
3.69149,-0.787552,-0.553947,37
4.20279,-0.416001,0.982023,37
4.09406,-0.715548,0.88834,37
4.18235,-0.572825,0.859466,37
3.01666,-0.300669,0.587472,37
3.7625,-0.658139,0.670341,37
3.7444,-0.513841,0.626098,37
3.00143,-0.301426,0.470488,37
3.50826,-0.747806,0.529885,37
3.48151,-0.610178,0.487256,37
3.04707,-0.419773,0.394135,37
3.02631,-0.305525,0.360654,37
3.49178,-0.744293,0.394913,37
3.43778,-0.603627,0.351277,37
3.02558,-0.417942,0.278716,37
3.00549,-0.304907,0.247038,37
3.46032,-0.739165,0.261023,37
3.46074,-0.608157,0.225501,37
3.36877,-0.466547,0.185973,37
3.02918,-0.308913,0.137629,37
3.46709,-0.741752,0.131806,37
3.37467,-0.594854,0.0945192,37
3.46713,-0.48165,0.0632392,37
3.3236,-0.33929,0.0289804,37
3.41153,-0.731171,0.00237489,37
3.35107,-0.591418,-0.0305279,37
3.2768,-0.456492,-0.0604062,37
3.26157,-0.33497,-0.0914685,37
3.40608,-0.731497,-0.125308,37
3.19504,-0.565375,-0.146943,37
3.29,-0.459853,-0.182645,37
3.27779,-0.337735,-0.212683,37
3.79581,-0.817275,-0.28166,37
4.17059,-0.740031,-0.347869,37
4.00286,-0.561841,-0.370065,37
4.1762,-0.431778,-0.425798,37
3.7632,-0.812935,-0.421373,37
4.15981,-0.740588,-0.502555,37
4.0465,-0.569192,-0.525575,37
3.72484,-0.806621,-0.55932,37
4.22597,-0.754879,-0.671093,37
4.20537,-0.429289,0.982929,37
4.08607,-0.727077,0.887086,37
4.15049,-0.581439,0.853282,37
3.03525,-0.31193,0.591277,37
3.75076,-0.667952,0.668613,37
3.73597,-0.524366,0.624954,37
2.99165,-0.309717,0.469101,37
3.49241,-0.755637,0.527839,37
3.49035,-0.62277,0.488758,37
3.04184,-0.428565,0.393626,37
